# 3D point list with one line of data per point:
#   POINT3D_ID, X, Y, Z, R, G, B, ERROR, TRACK[] as (IMAGE_ID, POINT2D_IDX)
# Number of points: 323, mean track length: 7.5310161947154084
11353 0.14750129042427218 0.051637089244015819 0.35336659396788467 3 6 5 1.046943690563251 27 823 28 790 26 790 29 765 25 766 16 857
11357 -0.13739458960566886 -0.1079248721426399 0.47076090751817384 74 44 71 0.6522113413008076 27 89 26 93 48 66 47 60 45 53 46 52 20 90 19 98
11374 0.2060926628554863 -0.10828401816884414 0.66278385149584207 1 3 1 1.0296192563902691 37 130 25 223 30 147 33 108 32 505 23 248
11376 -0.11285575566165523 -0.10937056187908986 0.53215052307073474 31 67 83 3.3481321652060774 40 200 25 247
11384 -0.14258241012445169 -0.10285881628760228 0.46552054868795301 0 0 0 1.3250785743064792 26 409 69 71
32145 0.7936898062864528 -0.39143863972269977 1.1380981841863895 0 0 0 0.2139259341819168 110 733 112 669 111 753 113 846
11392 0.050255436876514757 -0.055832875890249364 0.38295449822662314 5 8 6 1.4770223281279105 44 422 25 404 45 479 19 635
11433 0.13935809236850466 0.029099214679266492 0.38394384177003055 201 226 243 0.87154172958376075 28 45 29 7 41 56 24 121 21 149 15 8 22 134 23 136 274 279 273 95 272 79
11443 0.17007238483444936 -0.19566557138658155 0.50904596753895015 0 3 4 1.8387640048055114 47 277 24 284
32198 -0.14271978191704118 -0.097647237906706416 0.48662696223223528 64 40 34 0.9346565324110756 19 259 16 200 48 168 45 141 18 263 20 234 16 201 7 214 4 181 3 154
11445 0.25630411020135002 0.10090571260356565 0.38106568300429361 21 2 0 1.4126998719894117 39 524 41 489 24 319 22 365 23 157
32200 -104.34581834051436 -130.15256324486276 139.58110488714664 0 0 0 1.1517095938618476 122 271 124 52 121 276 119 19 123 58
11447 0.27853276998630172 -0.25384705512709321 0.46133333322046999 14 19 22 1.1435546069456954 44 286 24 386 21 492 23 433
32212 -175.50286799876571 100.90973795934326 0.77663817575657679 40 28 12 0.86790229134843033 179 394 176 346 180 393 174 362 175 387 178 352
11459 -0.14355019521408682 -0.096428605410382673 0.50270888490943955 0 0 0 0.014705980293151406 25 679 70 221
32217 -314.63444659001402 26.491491935217443 183.41411661329744 29 37 36 0.74503455054428258 165 4 158 21 152 105 178 103 180 100 181 87 151 124 179 111 184 12
11464 -0.17758162358079141 -0.10812223969385881 0.4864078794918068 14 12 15 0.71866977297642642 25 792 24 768
11469 0.053131370368048388 -0.066991125920995515 0.38115968950520063 188 208 218 0.7964783914023239 25 13 19 10 20 7 21 15 22 16 4 236 274 239 3 208 2 199
32233 -354.15421848203982 26.836993549112805 209.75102863189889 88 109 108 0.76240276438731225 166 12 167 30 178 105 180 308 184 350 156 43 165 5 181 367 151 303 150 145 149 384
11480 0.18958545085697917 0.21332799074541448 0.43112968437134275 83 99 112 1.3493294275331833 31 123 19 249 20 255 21 452 17 197 15 151 14 130 13 453 12 704 22 411 23 405
32240 -195.03532161122956 69.814572523875668 88.428468270015259 100 78 53 1.3754134815020747 165 698 160 600 159 654 159 699 158 671 167 46 160 10 159 327 158 59 168 288 157 377 157 675 156 584 155 543 169 300 170 313 164 622 166 651 167 658 171 129 172 407 173 333 171 608 155 682 170 521 184 355 185 0
11487 0.30946419085698812 -0.026883741681929904 0.74128650337596413 3 10 10 1.2763514288006124 37 162 19 309 36 136 38 172 18 307 20 307 21 309
32247 -276.64811165137866 15.988800900021573 140.05358216788119 64 69 72 0.66269002628620377 167 708 180 604 178 533 179 593 181 670 168 670 155 636 156 696 154 625 153 624 152 565 151 554 150 602
11494 0.079545549846504776 -0.0077976915056741517 0.35454798542244698 65 80 77 1.0233903540713349 25 280 26 264 19 352 24 267 27 306 18 350 20 352 23 313
32248 -281.41929967845107 16.055694897224388 142.21151343758203 64 69 72 0.95860297209572742 167 707 180 603 178 532 179 592 181 669 168 669 156 695 154 624 153 623 155 635 152 564 151 553 150 601 149 687 148 704
11495 0.078852096080198775 -0.0079967681154340213 0.35492275141398477 65 80 77 1.0689235793628231 24 266 25 281 26 265 19 353 18 351 20 351 23 312
32250 -32.24650941844731 -0.17849240664369459 27.592573118709733 4 7 9 0.9681512193701125 164 392 160 348 163 323 162 339 161 319 159 345 158 382 157 362 169 314 170 323 168 316 167 382
11497 0.097337396679293739 -0.089351679810090331 0.42265392447910083 5 5 4 1.0247179012622138 27 319 19 363 18 536 20 525 21 355 17 498 22 74 5 503 276 571 275 539 4 599 274 497 3 437 2 418
32254 -35.33919421434306 0.58034781591561269 31.699440123744896 4 74 59 1.359316262497533 160 677 164 706 163 636 162 644 161 629 159 598 158 680 165 711 168 559 169 543 170 541 171 553 172 488 167 607 166 612
11501 0.24567296893231058 0.27458544058237572 0.43530665685663317 32 35 34 1.0336170067291037 31 471 19 471 30 451 32 515 18 483 20 469 21 460 17 433 15 458 16 168 14 481 13 454 12 505 11 533 22 522 23 510
32259 -62.336369230095997 -38.70913289264351 39.951111765996565 91 41 62 2.9761752801959638 151 16 150 28
11506 0.14382614206589905 0.015044137017899067 0.32988113515884543 2 8 4 0.6753081488335354 24 397 19 518 25 293 26 263 27 24 18 531 23 542
32260 -113.60222187538007 -28.547219336040801 42.157990011209918 48 81 90 0.71776498975280645 173 235 176 207 150 32 149 37 148 24
11507 0.16979294872763742 0.024506303470488034 0.32941488681113451 4 6 3 1.2077752364756922 24 404 19 529 25 413 26 404 27 474 18 654 23 464
11511 -0.14198424750295593 -0.095772788526051228 0.48444350844277578 6 5 3 0.19531540157748731 27 418 19 599 20 445
32265 -69.558500021962317 -39.307900570249565 48.061624831409247 98 87 87 1.8234385226388348 152 47 150 53
11512 0.17527297530844657 0.22964056611006994 0.4475813605405452 16 28 33 0.69207993370349163 31 603 19 607 18 620 20 599 21 583 17 567 15 624 16 567 14 642 13 642 12 720 11 731 22 527 7 376 282 589 283 585 284 516 285 482 261 284 265 449 266 454 267 413 259 430 257 397 258 402 256 407 255 400 286 418 254 366 253 358 287 462 252 360 251 359 250 320 249 318 288 443 248 364 247 296 245 389 243 338 244 363 242 359 241 369 240 417 239 395 238 406 237 384 246 324
32273 -379.33183153518274 -143.37205478512308 289.21414943579657 78 96 116 2.4333055585118073 125 294 143 247 145 286 147 341 127 309 148 330 149 355
11520 0.13254817002279523 -0.11476617006594181 0.48797284231018867 99 133 161 0.66518479256125596 25 631 27 651 19 759 20 737 24 512 26 530 21 735 23 646
32275 -577.99316801407065 45.174844066332788 219.98088773746824 67 69 58 0.12978164430444636 153 282 150 105
11522 0.099262961324261489 -0.010116890826925551 0.34440330405402081 4 10 8 0.85153785541648264 24 689 19 817 25 719 23 737 22 654
11539 -0.14924033075238022 -0.11032894000051006 0.50628390863585937 83 99 105 2.5680938706334464 27 231 19 318
32300 -20.608463505049897 -5.2174877889535933 55.861131423937806 169 197 225 0.33685508523897867 151 199 150 205
11547 0.13553066730808649 -0.11482896490400751 0.45612784167483522 6 15 14 0.73482949722726565 19 68 28 29 18 53
32305 -577.27905810117159 305.59662684742642 457.19167812844609 108 90 54 2.2612489005374585 151 205 154 202 150 229
11552 -0.14747833387413564 -0.1011125353222555 0.46618247110197053 215 189 236 0.37972594998468057 19 105 18 100 17 119 16 375
11556 -0.13961192185629367 -0.10788803006488273 0.47268478333521974 194 164 214 0.29554596538283934 19 118 18 114 17 134 15 131 16 110 14 159
11593 0.1550754323641651 -0.10241983934007713 0.47898233330898449 83 111 133 1.5094433306551407 19 110 18 386 21 134 17 56 15 20 16 30 14 6 13 11 22 486 23 141 24 113
11594 -0.13775894952036732 -0.10910127850346159 0.46943876722499001 5 6 12 0.15459077477357644 19 373 18 388 17 81
11595 -0.13775894952036732 -0.10910127850346159 0.46943876722499001 5 6 12 0.15459077477357644 19 374 18 389 17 80
11597 -0.13805415455732795 -0.10639224626145759 0.47016518366752097 13 9 7 0.30556132851285733 19 384 18 399 20 109 17 113 16 92
11599 0.49178462160593139 0.010567727842327526 0.46049759039343791 4 3 0 0.95918438279391849 19 409 30 23 18 402 20 414 21 397 17 360 15 376 16 342 14 588 9 589 13 402 22 368 7 453 279 490 278 477 277 454 6 443 5 427 276 422 275 404 4 447 274 427 3 391 2 374 1 368
11608 -0.14510567836866764 -0.12567542300449938 0.49062368122463879 109 148 183 1.4479714835535598 27 499 18 443
32377 1.9395701033034234 -1.1887668706979997 -2.9496748167631597 0 0 0 1.0091759206343649 177 449 178 502
11624 -0.13675237795810788 -0.112035346469246 0.47048981480398899 3 4 3 0.18953531147530456 19 372 18 551 20 363
11625 -0.13828740254351637 -0.10597871425395092 0.46801263093036821 25 8 9 0.73012627321826884 19 654 18 554 20 634
11627 -0.13778640246263482 -0.1087139603097473 0.47024690417149562 177 167 207 0.17622990255264848 19 382 18 561 20 382
32381 -580.38723948991822 213.17525224589556 527.50171122589609 107 79 40 1.1839334124374132 140 714 141 718 142 717 143 639 144 700 145 714 146 686 147 681 138 775 139 766 158 708 159 622 161 579 162 589 185 716 149 667 160 621 187 647 188 750
11628 0.64512996410945822 -0.15687943283739492 0.5738907242389204 139 174 202 1.1089477880880068 19 553 24 429 26 423 42 90 45 426 18 564 44 457 27 482 20 555 21 539 17 628 16 502 16 618 24 135 28 365 17 88 22 147 23 486 40 23
11629 0.63058814291595366 -0.15670511332111706 0.57156501658239911 139 174 202 1.0535411056148591 19 552 24 428 26 422 27 481 28 364 18 565 44 456 42 89 20 554 21 538 16 503 23 485
32389 -56.762882332283247 -17.484833893631105 133.06678383293112 0 0 0 1.001405898975589 146 773 153 700
11636 -0.13632909044915176 -0.1019288939692258 0.4809051054211323 165 139 122 0.2106213283773207 19 431 18 607 20 169 17 674
32390 -3.3959127322216673 -162.38551816795095 301.75481830798333 0 0 0 0.13934118643402305 151 612 152 650
11637 -0.13798512224006357 -0.096617748994543881 0.47819607161655681 8 11 4 0.12968107427751938 19 578 18 611 20 565
11644 -0.13972561172952488 -0.09958020858240002 0.50108317706646344 87 67 102 0.52632617605299514 19 620 18 635 20 606 17 589 15 654 16 590 14 668 13 688
32419 -350.91908839575706 -182.00798720794904 263.80057129800559 0 0 0 0.40776216154300354 125 65 127 20 128 9
11666 -0.14446158744327869 -0.10148898393245825 0.49649028442263621 58 43 61 0.47488519418383279 19 859 18 822 20 788 17 789 15 828 16 766 14 858 13 891 12 923 13 835 11 925 10 914 9 842 8 806 7 689
11667 -0.14650435477441237 -0.10057234598270427 0.49875869928667788 32 26 42 0.63258584674547358 19 808 18 825 17 791 16 767
11668 0.14110548610977214 -0.13204676678133939 0.4633793197448417 1 6 3 0.82719656459217061 27 641 18 840 17 796 22 665
11675 -0.13661462320191023 -0.11004315371128331 0.47007694702447916 2 4 1 0.68810300593154339 19 874 18 887 17 851 6 730
11680 -0.12861914349755299 -0.1021180909548314 0.49398749492328936 77 63 84 0.63512266238399484 19 902 18 908 20 873 17 874 15 900 16 848 14 884 12 1014 11 1008 10 1014 9 959 8 897 7 812
11697 -0.15071868216732648 -0.099710813734862402 0.49842218473336247 13 13 13 1.7550485934577547 18 1000 17 954 19 992 16 930
32465 -37.855421699530595 -3.5311740238509728 10.842470869859014 176 163 173 0.18926102518628796 150 253 149 292
11712 0.13677725096739249 -0.12906994654748558 0.41450608328031074 80 90 76 0.41334247294520671 24 12 25 20 20 12 21 14 22 293 23 28
32466 -26.228676895872297 -5.9845511090792414 14.033884331395189 8 10 15 1.2984541814038388 150 277 149 310 148 305
11713 0.10603163608020068 -0.11427364760250842 0.41203068464653975 11 21 17 0.44801122419618744 44 25 20 14 43 9 21 33
32468 -24.643404163250807 -6.8161170246957052 14.931015215975098 8 11 15 0.21698997981793694 150 289 149 324
11715 0.11778517797022836 -0.13970181933654616 0.43649360302951012 168 182 196 0.35993453776685258 18 344 20 19 21 46 23 47
11722 -0.14544127448664756 -0.10140191358918572 0.46504562687245926 10 3 5 0.50069311307965081 26 283 40 93 20 94
11723 -0.14864390190281135 -0.10220008660150949 0.46810474467482494 227 186 239 0.22846747438111492 18 123 20 111 17 118 15 441 16 113 14 492
11728 0.44878682469791309 -0.063399365431308391 0.56887699312133222 0 5 14 0.76055006891613453 32 13 36 9 37 41 38 50 42 141 14 55 13 71 22 190 23 185
11730 0.47583141889779912 -0.045300724439974641 0.56084862787510859 141 172 199 0.64301002737264656 31 26 20 189 21 414 17 149 16 104 15 93 13 72 12 48 11 500
11738 0.13690154157435586 -0.1510468822264257 0.41717297822686922 79 103 111 0.57804851563234649 25 5 20 318 23 12
32493 -39.745198589059044 -4.459143710427119 9.788819994494288 126 86 118 0.20103612519255581 150 381 149 445
11740 0.062238595640957198 -0.05890179734110243 0.39099657985421049 167 181 187 0.84759232396995399 18 529 19 349 20 335 4 406 275 359 5 379 274 387 3 223 273 360 270 315
32496 -371.91643527468227 -139.58369143006286 311.04396659709369 12 21 23 1.5859752181411699 125 420 128 675 142 476 145 581 146 458 128 555 149 498 148 450
11743 0.13127829418399403 -0.11951062593542344 0.4585144383474985 6 17 16 0.57211177702196248 24 96 25 89 20 380 26 76 22 104 23 124
11759 0.048737704282959392 -0.066403233987697527 0.37952250334716964 7 11 10 1.2276472229853819 19 629 25 495 20 621 4 497 274 485 3 341 273 440 272 489 2 326 1 392
32514 -34.545814710301904 -2.9982100573665535 11.481410051931313 160 181 200 0.08200994439310727 150 478 149 560
11761 -0.13800260306374926 -0.10234357245099597 0.46757360978315299 13 12 9 0.41091585099970768 19 655 20 636
11763 0.40693067962615659 -0.070806854107646075 0.55639607937909863 3 8 8 0.99709776975589781 18 701 37 681 32 688 36 718 57 630 51 607 56 637 38 597 17 655 15 698 16 632 14 700 13 708 11 806 22 603 23 587
11766 -0.12983673873696436 -0.085608700640306651 0.47969031619195318 0 2 0 0.19212936111113949 19 700 20 671
11767 0.4954280957396005 -0.16947062839346494 0.53430182392066428 140 171 199 1.5235397344412682 18 771 19 757 25 629 26 525 45 508 20 733 21 622 22 677 23 562
32524 -373.53528778754423 40.945581753749977 255.97065922601288 0 0 0 1.3122716838554924 141 614 145 612 152 476 153 456 154 532
11771 -0.13562059940193735 -0.091624969886707694 0.47922717807290355 2 3 1 0.15135242091041431 19 780 20 762
11776 0.14020132809493058 -0.098071650159712295 0.40064421939296319 28 32 33 0.88977758019533737 19 816 47 671 20 851 22 731
32532 -30.706945986408229 -3.62727273175464 14.192536353721419 119 85 120 0.3545569151957107 150 555 149 634
11779 -0.14439043248589431 -0.09881366978078196 0.487448876452581 62 35 31 1.3035556388243761 26 173 29 423 18 264 20 233 30 470 43 387
32533 1.8190158494408637 -1.4067811634785319 -3.1388666536185386 0 0 0 0.98371806359861114 177 429 178 490
11780 -0.14496128891768764 -0.1028944662878717 0.46610616980230046 20 10 5 1.2574618006465021 19 755 20 821 37 711 36 738 38 687 57 652 56 653 37 822 35 813 34 798 34 887 33 842 39 740 32 760 40 722 31 781 30 755 41 688 42 699 43 693 29 685 28 654 27 647 44 663 15 850 16 791 14 835 13 800 8 768
32534 -374.55692070455029 12.06567362328207 252.00622533217518 81 83 69 0.99158311481531869 150 572 176 485 179 559 180 555 181 630 182 591 183 633 184 666 148 628 149 650
11781 -0.13962349405757041 -0.1012946487334406 0.47866876298354899 6 5 2 0.86096031284239194 19 776 20 749 33 681 38 627 57 665 58 707 56 599 39 641 40 529 31 665 30 617 41 518 42 400
32537 -26.44774405919005 5.552605383955604 25.9375701921055 56 47 68 0.52745644828011651 150 576 149 655 148 566
11784 0.10390130756630463 0.12510237775934158 0.38390928277161507 64 81 97 1.5107243597091309 18 783 19 840 20 830 21 806 17 644 15 583 16 629
11785 -0.068619556527166073 -0.055824936860401381 0.41154891788213677 191 208 218 3.6709258150480828 18 36 20 33
11793 0.20893250521107185 -0.073214963755482879 0.67388171479948134 67 100 120 1.8874243999384301 19 861 29 661 20 845 21 776 28 628 30 723
32548 -148.66427928699881 -9.1481951950724536 80.590967646068108 2 3 3 1.9436879201600998 152 561 149 685 148 665
11795 0.29012660834844528 -0.24541197560758282 0.470419904436919 190 209 224 1.1225193328355993 67 21 21 22 73 13 72 48
11796 0.29174088072778592 -0.24168359402380143 0.47107058188015627 18 36 50 1.5692841118996166 21 23 73 14 51 6
32556 -66.014822902503624 22.01303496835461 48.307026068474109 134 115 82 1.02054847498027 150 350 149 705
11803 -0.1384536107575757 -0.10937250158817455 0.46581988069663904 110 77 104 0.17930801721477058 24 73 21 91 23 73 22 59
11805 0.16609644261446321 0.060393447786502658 0.38359765715295069 73 84 89 0.76056455840768411 27 102 21 154 17 50 15 18 16 26 22 143 6 14 276 46 273 107 1 108 271 105 261 13 264 55 266 53 267 75 268 90 270 86 269 97
11806 0.50211427422376764 0.0018320647669013857 0.43530754771547459 70 80 81 1.8223047883934245 46 119 21 160 50 142 51 130
32560 -29.641847153572179 6.6822634307972111 26.684615177096539 7 9 7 0.66571979436146289 150 665 149 744 148 737
11807 0.47855814059574225 0.021275990192911719 0.43274885746962427 68 49 54 1.3871917562842622 44 341 45 308 21 161 46 284 47 316 48 324 22 150
32564 -256.77942427031144 -28.283058273391568 93.702259792961812 83 58 27 0.69156696468289647 154 617 153 611 152 554 151 581 149 714 152 590 153 656 148 692
11811 0.15703977560490306 0.14613997659637132 0.40057528330536496 189 82 21 1.5061684594381444 20 216 28 134 21 220 17 152 30 104 23 392 258 22 286 8 254 64 267 108
32566 -57.840633317703428 -31.021925169471313 28.662385652009583 46 64 74 0.73664564890593265 150 10 149 6 148 11
11813 -0.14098412868582166 -0.10206718890707896 0.48727177536193672 11 3 2 0.42576124968221912 24 172 21 233 23 200 22 202
11822 -0.13886831196875651 -0.065064663077054163 0.4964490818528936 43 40 69 1.2180679583765828 18 324 20 309 14 545 16 250 13 560 12 648
32577 -33.799995682661468 -63.341624801716854 167.30022589621484 60 79 86 0.70355737622236114 141 115 142 158 143 136 149 245 145 201 144 198
11824 0.12163821378665575 -0.13414015222481554 0.41176961040697613 150 184 148 0.3269269863068297 19 330 20 322 24 4 21 321 22 292 23 13
32581 -463.90364959515171 -130.07948304694824 359.84491313049597 4 8 5 0.37710962357154915 144 307 149 366 145 91
11828 -0.13883798392501012 -0.10874388727564527 0.4660293940741792 188 163 221 0.15430866675425856 24 75 21 359 23 305 22 324
11829 -0.14961214893487473 -0.10340082252382561 0.46408634615620137 196 214 231 0.27647820332249012 24 76 21 360 22 330
11830 -0.14782298586117473 -0.10061163267824412 0.46037505379429111 10 13 14 0.62272741520688035 24 264 21 361 22 319
32584 -28.989898663737772 -68.321268941305348 156.38901437467621 34 31 16 1.2922594914487235 141 502 142 523 149 404 138 541 140 501 139 381 143 459 144 511 146 500 145 502 147 493 148 484
11831 0.13651271432161069 0.035904918644340353 0.38151915204474862 140 44 22 1.2982157190352202 40 476 41 468 21 386 39 508 17 338 272 311 2 251 278 458 271 294 264 344 267 362 268 397 270 344
32585 -32.39853687409628 -55.203281021936668 171.86543649551055 119 146 165 0.60367585381165101 137 575 139 571 149 413 134 430
11832 0.089420764230004002 0.061484424238732155 0.38250536601447838 6 1 0 0.54759989332656978 25 129 21 394 17 357 22 144
32589 -56.080620155213275 -28.517958138981374 26.727507341397644 168 190 213 0.22075991707401654 150 383 149 439
11836 -0.14547158989266093 -0.097284101574277679 0.48003564578748525 46 32 27 0.27237678183006703 24 332 21 422 23 192 22 181
32590 -607.06120502341548 -251.6763643172018 372.92668898422659 7 17 23 0.72356092711298725 146 423 149 481 145 417 147 47
11837 -0.14547158989266093 -0.097284101574277679 0.48003564578748525 46 32 27 0.27237678183006703 24 331 21 423 23 193 22 182
11841 0.19972204201504803 0.23121923818206858 0.44086494773712048 32 35 30 1.4135576469800537 21 461 15 459 14 482 13 455 12 507 11 534 22 523 23 509 283 583 282 401
32598 -120.7777013324686 -33.280833082173721 36.941211659727841 154 165 171 0.21118652149056724 150 468 149 623 148 512
11845 -0.14123341030881711 -0.10190014598300666 0.47595227199273937 13 10 5 0.18951167126706694 24 433 21 551 22 495
32600 -554.8360264249618 -239.84910073528002 335.31596108459746 164 181 199 1.30815454740454 145 656 146 623 147 625 149 637 148 603
11847 -0.14772244309174684 -0.097727661031659335 0.48207613262373467 16 8 5 0.39305915278100073 24 555 21 568 23 592 22 611
11853 -0.13999608929799051 -0.10405476806302011 0.46308252685320661 5 4 0 0.35198229508908352 24 402 21 614
32612 -47.509642285920577 -68.769255935515787 170.66859674551557 77 91 92 0.76869595820957326 143 342 144 382 145 372 149 222 146 388 142 390
11859 0.076515800084743429 -0.11886181744729302 0.58116706750407765 119 164 203 1.0700117413849579 19 475 25 575 21 682
32625 -46.290422966562261 -69.862913709196775 167.03536227559164 8 16 13 1.235968192545116 143 341 144 375 145 373 149 403 146 389 141 353 142 389 140 338
11872 0.28360375874526689 -0.062740949824318951 0.4629200693087287 74 91 101 1.7521240400169034 18 852 19 880 24 722 21 828 17 847 22 776 23 769
32635 -25.916712403533701 12.491742324757686 28.806487578626491 59 43 56 0.4049793821993829 150 544 149 614
11882 0.102620731698843 -0.066679794325793504 0.44997416707142263 2 3 1 1.2599978994415337 18 78 19 113 20 135 21 140 53 364 52 352 54 324 55 359 56 9 51 123 45 301 46 97 22 128 23 131 4 310 5 83 275 259 274 299 17 341 3 379 273 125 273 470 272 523 2 108 1 260
32659 -60.963214466079378 -116.66036334806388 128.58940131159557 212 230 243 1.1024136806273779 144 11 145 31 146 50 148 87
11906 -0.13756363268537986 -0.11352392682384163 0.47111277727268547 201 198 220 0.38171023571935581 18 79 17 78 16 73
32660 -49.95060270746194 -117.64245664036457 119.11559407163429 214 230 211 1.4656202883697826 147 60 148 88 146 26
11907 -0.13848830388404801 -0.10961685892066295 0.47208239378303873 183 150 194 0.23693033432639188 18 96 17 112 15 129 16 109
32661 -34.203153166178488 1.8134911365893656 9.7754090937630593 110 99 97 0.070532643658634306 149 320 148 92
11908 -0.12658836100007309 -0.097143425551350179 0.46851189038511093 9 5 1 1.4415215729075324 43 573 17 115
32662 -27.222233550411676 1.4567104594810951 9.1593804623914572 19 12 6 0.2094032802855576 149 71 148 93
11909 0.098094696872637374 0.10655826759861409 0.41046015056893703 241 127 73 0.53269061710289778 18 438 19 190 20 205 21 221 17 153 15 105 16 114 14 49 9 23 22 385 23 203
22182 0.19924830348307573 -1.5358803869575908 3.8107304317462196 0 0 0 0.25021870833787435 97 284 101 160 112 35
32664 -27.284339449169664 -0.120967391236319 10.18051035789988 127 112 122 0.03532857429662345 149 74 148 95
11911 0.20429939447962964 0.2251118875182149 0.41159977216492977 70 89 115 0.62956026752308358 19 229 21 240 17 180 9 52 22 231
22184 0.13849863952001767 -1.3016234894887344 3.9291575888718402 0 0 0 1.7194939655661927 97 668 107 932 101 758 103 793 106 972 96 626 98 790 109 1062 112 849 98 715 109 1001
11913 -0.13915039369670468 -0.098910273331204931 0.48055756564108543 7 3 2 0.4804496210429377 18 220 17 210 15 179 16 176 14 209 13 229 12 228 11 203 10 188 9 213 8 195 279 177 280 169 278 180 281 174 277 185 282 492 283 181 276 182 275 132 274 161 284 429 285 417 261 174 262 182 263 160 260 166 259 183 286 195 287 203 288 183
1433 23.580875347847158 13.984688449861217 57.585514527450023 88 102 110 0.85350525117911991 134 376 135 362 133 395 84 365 82 456 81 394 83 410 80 365 79 345
22186 0.12625336443245783 -1.912178318600763 3.8239358543177899 0 0 0 1.469303327314698 101 80 95 183 104 3 96 215
32667 -25.065231542251716 1.6010831496615918 11.155754359302765 94 40 66 0.065608640248309896 149 97 148 109
11914 0.094871971305231229 0.15840964320046938 0.45261022836919823 113 123 129 0.86931494621549887 18 257 19 265 20 273 21 267 17 216 22 262
32668 -23.188378794762968 -34.755970972478721 52.319106547349115 184 202 214 0.39435426656753114 149 123 148 114
11915 0.1798368675974043 0.2465118186968428 0.44257249787321973 22 7 1 0.95373065268943347 18 488 19 480 20 600 21 584 17 217 15 165 16 178 14 494 13 145 12 105 11 72 22 528 7 141 277 142 283 390 282 403 284 336 285 331 261 276 265 336 266 325 260 424 267 297 259 274 257 264 257 399 258 276 256 409 255 295 255 402 286 274 254 281 253 117 287 326 252 268 265 539 251 124 264 123 250 142 249 123 288 308 248 146 247 125 245 286 243 248 244 256 241 282 239 268 238 289 236 290 246 250
22188 0.183635320037111 -1.7566631836554294 3.8222284229011487 0 0 0 1.1007337410956635 95 384 100 184 102 96 103 52 96 234 98 227 99 194
32669 -23.188378794762968 -34.755970972478721 52.319106547349115 184 202 214 0.39435426656753114 149 124 148 115
11916 -0.17294079180643776 -0.099084156420206154 0.47584573637627342 0 0 0 0.18598681377049628 18 269 20 573
11917 0.29480517489832131 -0.083867617337531786 0.64195924496514012 1 5 5 2.6930977745140039 37 87 17 219
11919 0.23377086328448599 0.32896006400173955 0.44898044583959135 7 15 17 0.62604090762594367 18 267 19 489 20 482 21 474 17 225 15 174 16 183 14 180 13 166
11920 -0.13915395557422092 -0.1019701949465863 0.4926941277364898 43 21 10 0.80147380618533792 35 235 17 242 15 212 14 254 13 267 12 268 11 255 10 237 9 246 8 223 7 228 6 192 261 390 262 383 263 355 265 375 266 362 260 384 267 315 259 382 257 343 258 352 256 351 255 339 242 386 241 397 239 336 238 353 237 335 243 367 236 355 235 341 234 311 246 333 233 269 232 283 231 356 290 176 230 309 229 335 228 337 227 211
32679 -366.14580428921181 -100.94035251084928 329.1394943590139 0 0 0 0.99852314396814001 131 9 141 10 142 25 145 114 146 123 147 139 149 161 132 1
11926 0.15463533045953576 -0.15292516871835166 0.48992438344763845 143 170 187 0.7791771726922585 52 48 17 335
32680 -357.79080902779577 -98.959396887872515 327.64896416075237 0 0 0 1.2869416044961324 127 352 128 421 131 422 140 0 142 26 144 92 145 125 146 129 147 147 149 162 124 339 129 398 132 411
11927 0.37545261830061699 -0.066715407975111898 0.50951982545400587 99 129 153 0.54848593643812904 18 409 19 130 20 156 21 396 17 370 15 47 16 59 14 416 13 598 15 574 22 160 23 164
11928 0.12365604798977375 0.13959943983400999 0.4080730816207227 20 8 6 0.76437198432225084 18 601 19 588 20 577 21 569 17 403 15 407 16 383 14 64 9 600 10 653 11 804 22 615 23 596
11929 0.1278033251433838 0.14196779646750904 0.39985615843985639 147 61 24 0.93377793713430735 18 439 19 434 20 443 17 404 21 424 15 600 16 539 14 606 13 707 12 794 9 592 22 390 279 498 280 584 261 256 262 273 263 247 260 254 259 407 257 232 264 75 258 243 256 34 255 58 287 531
11930 0.25212593545409168 0.18180482222613922 0.42926500742913326 3 8 5 0.54430784148295708 29 391 30 548 17 410 11 23
32684 -28.889911051853822 -81.016824294453571 143.17394418931408 82 92 93 0.33390380361759686 146 362 147 173 148 172 145 145
11931 0.52115343125592861 0.097107598717621757 0.59101454966151923 112 119 103 0.38012204877678729 30 423 35 554 17 425 15 447 16 405 14 469 13 459 12 499 10 506 277 373 6 367
22205 0.24175336486139423 -0.16199701430004895 1.3324672267116351 0 0 0 1.3447204236189541 61 282 73 277 62 283
11934 0.19108082596731638 0.22001029329187546 0.43280552207655759 41 37 34 0.91029410040608771 18 475 19 462 20 459 21 453 17 432 15 152 16 409 14 146 10 480 22 412 23 406
22207 0.35424310151628219 -0.27838436875646128 1.4083269490800998 0 0 0 0.647492168324313 61 622 72 534
11936 0.16978937149351822 0.27179869306042437 0.48327189051538533 163 187 212 0.80257955366785438 18 506 19 495 20 293 17 462 21 479 15 489 16 436 14 513 12 564
22209 0.65675930939466354 -1.6842533052642186 3.4180234284977979 0 0 0 0.42535206670237041 100 447 101 417 89 71 86 320 87 317 88 68 98 459 99 168
32690 -426.20007016122213 -78.006525096081674 396.03732292917164 0 0 0 1.5092002278272092 125 338 126 140 139 11 140 14 141 26 143 50 144 126 145 153 146 149 147 177 133 0 148 180 132 33
11937 0.17926227004783482 0.2823296313905157 0.48366966245420095 163 187 212 0.81389312885444531 20 292 17 463 21 478 15 490 16 437 14 512 13 498 12 563 8 460
11938 0.21838897042911151 0.34361234241900868 0.51536794354322168 99 85 62 1.4144219020883637 18 632 19 622 20 615 21 489 32 558 17 471 9 186
11943 0.10323203463549036 0.020850858801618102 0.36249590337351312 21 6 1 0.78136612638649883 18 541 19 535 24 599 25 626 26 517 27 476 17 506 22 572 23 555
32701 -18.187891097872317 1.2461230347505221 29.265803598886787 58 45 63 0.22631614111669934 149 401 148 202
11948 0.15519637388600904 0.2109602771661839 0.43525104515098295 127 43 29 0.75589071794000751 18 618 19 603 20 597 17 562 15 161 17 436 16 562 14 147 13 456 12 508 11 535 22 249 18 241
11952 0.42777428189115724 0.087476258982396304 0.87068653171167409 70 83 84 0.81305075554449813 26 495 17 595 16 596 14 665 13 677 10 756
32706 -21.66249372957007 -60.344493589525435 157.42298837468073 21 30 29 0.58324907430562134 137 15 148 210
11953 0.20006976186508973 0.078158435044897445 0.3221376910982629 4 6 2 0.87272687423859863 19 652 24 601 17 608 25 627 22 479 23 635
32708 -19.280944810290141 -58.007201120255921 160.68377437625514 18 41 57 0.54772108925912655 142 190 143 174 144 224 146 215 148 216 137 25
11955 -0.14205557488364276 -0.10298175492751405 0.46819264544355255 181 159 212 0.064753696431965324 18 562 17 641 16 634
32710 -24.502348457205553 -2.2446618851887896 69.47706572116013 67 56 73 1.1778226955719129 151 430 148 227
11957 0.17550882976365784 0.18779746498231845 0.38329372191694344 4 10 8 0.24618101496950823 18 597 20 672 17 660 16 635
32711 -49.587591584879917 9.2363184723143394 161.08028121058251 0 0 0 0.84668459221292292 145 247 151 196
11958 0.20336981915275534 0.24193695891696881 0.42013357893048486 3 8 4 0.27364603512654045 18 725 19 707 20 687 17 669 15 717 16 644 14 709 13 721 11 813 10 672 11 714
11960 0.28807898724791198 -0.0097412863207392633 0.62787823957741928 0 2 1 1.1678552522852848 18 733 19 715 20 695 21 689 17 687 15 733 16 662 14 725 33 734 32 713 34 791 13 750 12 840 11 837 10 895 9 832 8 795 7 673 277 652 6 648 5 640 276 618 275 585 22 632
32716 -8.3047671540631036 -38.812382049518462 179.0304133190333 101 128 154 1.0316978425447594 138 179 139 222 141 221 142 248 143 205 145 230 148 234
11963 -0.1090162663190351 -0.08730993096572208 0.51408202802693381 37 28 56 1.3741338848008724 18 634 17 696 15 755 16 684 13 769 12 859 11 777 11 924 10 913 9 840 8 853 7 740
22236 -0.13949643730696884 -0.10062706733509102 0.47660800148226234 2 2 0 0.91508928569784054 71 362 70 321 73 381 72 359
11965 -0.14197611008817393 -0.10561530014363724 0.46688287302956683 117 79 113 0.93294843101622593 32 797 17 725 16 713
22238 0.62979824662799266 -0.13897295512110552 0.562167876966436 147 179 207 1.5668095261249755 54 468 50 538 40 473 29 473 27 484 28 367 41 333 27 109 44 137 26 124 26 425 25 538 24 137 24 431 19 407 19 660 18 567 18 684 21 158 21 634 20 556 16 58 15 44 22 356 23 356 15 573 55 504 16 505
32720 -120.04665028534291 22.971979543019266 152.60266702730945 0 0 0 0.6782916923215162 165 158 176 190 166 153
11967 0.75993591940072835 -0.099006796969631661 0.62249288068845265 123 165 203 1.6428986562869774 64 521 17 732
22240 -0.13592875606129298 -0.11377688782942701 0.47055107101619031 215 225 237 0.15134707088748925 228 25 229 30 227 31 226 18
11968 0.10136094708990462 0.10882264627460869 0.41206561112069112 239 103 28 0.8555073913868052 18 865 19 843 21 807 17 736 20 831 15 788 16 725 14 766 13 784 12 868 9 802 22 752 23 713 280 784
22241 -0.14510376331977459 -0.099638478147981227 0.46871479917608261 18 17 19 0.16918701781611972 228 22 227 34 225 24 224 22
32723 -22.628755143554564 -34.719119986121733 198.57130450596105 87 121 142 0.80510934874673967 137 129 138 177 139 221 140 193 141 219 142 244 143 203 148 240 144 253
11970 0.19094204011141283 0.25787871383002597 0.42879632651897442 9 10 5 1.0454008928648679 18 802 19 789 20 776 21 756 17 762 15 800 16 746 14 777 13 797 12 816 11 887 10 783 277 563 282 671 283 685 284 609 285 581 261 532 260 416 267 401 265 445 259 527 257 472 256 477
22243 0.011758692713165347 0.10439114788095459 0.38001955496465495 109 37 23 0.75020304804316584 234 8 227 61 226 75
32724 -5.9332494468436572 -33.541475480380029 182.8316597223012 43 75 90 1.8946121659501114 141 228 142 257 143 218 148 242 144 269
11971 0.18758791292554575 0.25427777520841899 0.4290507424427234 9 10 5 1.0661930537021129 18 803 19 790 20 775 21 755 17 763 15 801 14 778 13 798 11 888 10 784 277 564 282 672 283 686 284 610 285 582 261 533 260 417 267 402 259 528 257 473
32725 -5.9208805424796376 -34.600186972530373 186.03092111074977 43 75 90 2.2389593977313247 143 219 148 243
11972 0.11239690544206359 0.1898766183866685 0.46670739840250697 104 141 170 0.79785009590567191 18 818 19 803 20 789 21 769 17 769 15 804 16 756
22245 -0.12961184161586156 -0.10032496675118678 0.47783012781686757 9 16 22 1.045193621752972 228 72 227 78 225 62
32728 -32.151003153728979 -1.1077131026065095 7.5120916049118271 132 74 108 0.049473821183165845 149 14 148 268
11975 -0.14427208342783168 -0.10073332184558413 0.49887116212754984 129 111 152 1.0033325773097441 20 699 17 790 15 829 14 802 13 836 12 924 11 965 10 966 9 905 8 855 6 744 5 718 4 706 3 603
1495 -9.9999227820879284 9.1759836464977589 23.950409542703675 80 104 114 2.1896302089840787 109 1104 134 712 110 1020 137 629 133 763
22248 0.02978856323877423 0.30043895637080248 0.38160235083229682 149 166 177 1.2639753588050042 288 8 227 89 220 46 224 75 221 191
32732 -26.477409406048064 0.98223377302199155 7.5537750188863564 151 133 138 0.25478002852000065 149 59 148 287
11979 -0.13702603946677666 -0.099580204173550305 0.49131827144316448 68 38 32 1.3844694383802225 19 850 27 735 17 834 16 808 13 887
22252 -0.14626668149297634 -0.10032406643677481 0.49869344021443213 54 44 70 0.23711743777830277 228 148 227 116 226 120
32733 -25.903108787447692 -4.5980698536588216 11.726991080526039 119 113 121 0.31616176293335008 149 469 148 292
11980 -0.14090471449481418 -0.092250240640776721 0.50679408349094646 28 20 41 1.5311826617443294 18 880 17 838 15 877 16 813 12 929
22253 -0.13936774707557967 -0.11241307370496698 0.46822398071064042 202 108 182 0.088859261940712364 228 271 227 140 225 134
32734 -43.750860262528207 -116.80215835799692 115.02859114418241 192 203 182 1.2806684262361145 146 283 147 37 148 295
11981 -0.13566499331896364 -0.10965635800291988 0.46998975472215793 3 4 0 0.32349285729078364 19 875 17 852
22254 -0.13855503811970585 -0.10946651065665 0.46889270610404982 191 204 223 0.1578881357408308 228 188 227 154 226 156 225 140
32737 -24.159245024175991 -2.0412247252560252 11.857430259438088 166 162 164 0.17014632190014289 149 332 148 313
11984 -0.14103164863465359 -0.10081613994144709 0.49642427091164271 38 25 42 0.54523725151500924 19 910 17 883 16 854 14 889 13 926 12 988 11 996 10 992 9 942
22257 -0.13080779755478045 -0.099451293643438063 0.47678185829582709 5 6 3 0.19999987030562544 228 223 227 185 226 183 225 162
11987 -0.10642594579841785 -0.095143083827924815 0.52029554590175131 78 63 100 1.1630477302529485 37 734 17 909
22260 0.07234090007434113 0.25240572898504582 0.39863700912443406 28 21 16 0.46338497771346548 235 26 227 200 226 209
32741 -32.622955515931153 -108.04001875841621 118.87701749518953 43 59 67 1.6239616623495139 146 441 147 334 148 318 145 428
11988 0.22885034897146839 0.26325780202706406 0.39595148944208142 87 105 119 1.1531905585077955 18 968 19 961 20 925 17 924 21 893 15 946 16 896 14 920
22261 -0.14506228336707122 -0.093951331407869307 0.49242293043295426 67 53 78 0.24081575497685856 228 331 227 206 226 206
11990 -0.13708300163454842 -0.11236712840424992 0.47094214043400323 20 24 25 1.2102218032558916 19 543 18 550 17 521 27 71 26 78 16 516 6 303 281 89
22263 -0.29418253208432227 0.52000900930871674 0.67997319899154451 102 90 72 1.5054143645537994 236 435 227 235
32744 -25.966723114122992 0.27619877043535618 12.528479986186623 212 184 214 0.069084406173438084 149 345 148 327
11991 -0.14410048582457144 -0.074355614078282742 0.48826186475777256 56 50 77 1.4286389619644504 37 376 39 283 40 265 41 268 42 287 20 287 18 297 17 260 35 679 34 664 33 582 19 621 16 228
22264 -0.1447782465396657 -0.10124975144816561 0.46495582067199281 197 175 218 0.34003742421444505 228 274 227 237 226 242 225 226
11992 -0.14467677589676289 -0.10334087028215046 0.46718798631957331 204 176 222 0.84524029840069992 19 103 18 97 17 374 29 364 28 380 27 359 12 560 11 583 10 529 9 460 8 416 7 345 279 525 280 445 278 498 281 636 277 311 282 604 283 439 5 276
22265 -0.13207097283774444 -0.10266395774106599 0.47069459205314101 147 102 131 0.30793707863093911 228 293 227 253 226 255 225 239
11994 -0.14537970086419741 -0.077656409227244608 0.48588451529944549 6 6 8 2.2438306048688101 38 579 34 765 33 576 40 557 42 541 27 618 42 624 17 584 47 476 45 540 51 447 69 274 49 388 68 436 60 505 16 451 18 629 13 539 12 622 39 578 58 653 56 297
12001 -0.14265798765429297 -0.094107907510567038 0.48720780987550649 14 7 2 1.7236699793670394 39 719 31 690 18 817 19 793 20 770 15 748
22275 -0.13481226354611006 -0.10921892814344739 0.47326043832113512 24 19 19 0.021209635968606408 228 399 227 340
22276 0.015353023584566861 0.1180424473694958 0.37849480472034736 19 20 22 0.47530246435185952 246 348 227 344 226 351
22279 0.031454280905195468 0.13277711939254822 0.38484599422233651 124 144 151 1.6109711088869236 288 603 227 392
22281 -0.14979420463389831 -0.091899680111428961 0.48575025719624787 141 144 139 0.30855446729237085 229 499 227 417
22282 -0.14292728473681238 -0.091456293702749103 0.47696410911183984 193 210 221 1.9619202782116638 228 489 227 423 226 441 225 393 224 411
22284 -0.13584588425838953 -0.10198577032492284 0.47442199746931002 186 204 216 1.2266719518354676 228 492 227 430 226 445 225 406 224 440 221 417 222 433 223 396
22285 -0.20511299475409933 0.0033263667287077893 0.43232733792929062 164 182 196 1.7306126330823908 229 508 227 440 226 456
22286 0.024865643022357289 0.33575597038376842 0.36967863721497468 148 168 179 0.18876587273448667 231 192 227 190 226 198 225 173 217 282 224 189
22287 -0.13541216336357065 -0.11094376221152125 0.47252892930866836 25 21 20 0.071295895113742236 227 40 226 40 225 39
22289 -0.20749390263593509 0.10743930154003184 0.43759013466525432 150 159 165 1.0563163570300509 240 8 226 56 223 45
22291 0.0091170003469314212 0.098828186470513488 0.37485240020880045 40 32 29 0.4445200190450051 230 23 231 6 226 64 229 33 234 186
22296 -0.13576692017847369 -0.10180979936394992 0.48628961649104119 4 5 2 0.24554107925577798 227 197 226 96 225 77
22297 0.10303060436854829 0.28958218469808794 0.42148719458964623 82 91 96 0.77098911480303678 228 109 229 104 245 126 226 121 225 193
22298 0.14115509945381796 0.36673425265701193 0.42150532774273158 3 8 8 0.31972235324913384 228 117 233 66 226 123 225 108 219 82 220 99
22301 -0.37879387138826709 0.77085829738544098 0.74702843931871621 106 98 79 0.64279465737083952 230 135 231 268 232 117 233 252 234 288 235 311 290 203 226 145 291 209 225 126 217 102 292 172 215 252 216 274 218 252 219 113 214 247 213 232 212 43 211 58 210 57 220 124 224 117 186 437
22302 -0.13926751689877026 -0.11173211353923519 0.46854436533271532 208 220 236 0.17127996952836505 227 145 226 153 225 135 224 141
22303 -0.1424730591835125 -0.10178851397131856 0.46716550775671711 185 203 223 0.26478146529140839 227 156 226 159 225 142 224 15 223 19
22307 0.019669728393053143 0.11150406517105316 0.38207623144989916 68 76 79 0.36858699594274041 231 179 234 192 226 194
22310 -0.12266421430443156 -0.095914317570702012 0.48282968617865701 52 24 20 0.092473743967284888 227 205 226 203
22311 0.073039870385670405 0.25430723587329135 0.39853288621441457 26 25 21 0.5795408667899663 235 27 226 210 238 21
22313 -0.14590794595907064 -0.097848838018088941 0.50176426589960521 55 44 71 0.41018839687666403 227 226 226 219 225 199
22332 -0.14351622023674096 -0.0920896347984312 0.48130418010926912 58 51 37 0.47013780233226021 227 369 226 408 225 367
22378 -0.13134527946691185 -0.1009180509311102 0.46404857886309275 183 125 164 1.0713498517996118 226 376 225 338 224 356 228 448
1627 25.464261748541539 15.62019657347922 51.12978492864292 62 76 80 0.44298443100572982 104 496 135 410 110 568
22380 -0.14278273380090351 -0.096981191165576658 0.48696904793961115 44 22 14 0.49680185989279796 226 352 225 354 223 346
22382 -0.14232745485294435 -0.095842727066831626 0.48437413659057138 154 158 157 0.44825164116584582 226 384 227 373 225 371 222 390
22383 -0.13449465472562497 -0.10152381186523715 0.4918576685658288 60 48 72 0.31407511706059044 226 431 225 388 224 423
22384 -0.090324920692899796 -0.027310324512683403 0.48714833815056574 153 174 201 0.042096435779632915 225 397 227 379
22385 -0.11862880129463826 -0.070341007765820515 0.46348638728088587 186 204 215 0.33558386242471339 226 457 225 416 224 449
22386 -0.13976736313332108 -0.10407299392314533 0.47408647627696648 75 39 28 0.41333312826966606 229 58 228 48 227 47 225 42 247 54 243 73 242 250 239 131 238 142 246 67
22406 -0.35367594026377253 0.74940089384857467 0.78723854938494064 123 100 68 0.82230994891990861 230 318 231 276 232 281 233 267 234 301 235 420 290 369 291 225 217 264 292 184 215 271 216 285 218 265 219 246 214 282 213 255 212 234 211 250 210 219 224 231 186 466
22410 -0.30653817222052904 0.55871409508024494 0.73089311120774259 91 70 44 0.3606722896223083 230 321 231 358 232 345 233 352 234 395 235 423 290 378 291 345 217 345 292 302 215 381 216 375 218 329 219 310 214 390 213 345 212 345 211 342 224 297
22411 0.085264807347688196 0.24862867912762221 0.60134635342906984 65 52 33 1.0559580613696848 233 276 234 314 238 349 289 356 217 357 237 332 235 344 292 385 216 394 214 409 210 329 208 336
22412 0.085702198005226479 0.24944252327896077 0.60163678869962567 65 52 33 0.98786341978954384 232 295 233 275 234 313 235 343 237 331 238 348 289 355 217 358 292 386 216 395 214 410 210 330 208 337
22415 -0.14553762740210699 -0.090319326230715147 0.51201611417120951 90 69 42 1.7956051953341132 226 425 217 404
22416 -0.13440930063601084 -0.10336320721727804 0.4660940803039802 28 19 15 0.85587205237355568 240 386 217 408 292 505 215 513 216 490 214 483 213 449 212 451 211 439 210 404
22418 -0.10140808314146496 -0.067638900981978944 0.49789388344694185 99 83 60 1.4700643760587857 232 141 217 440
22421 0.19598936040709219 0.83560995523462533 0.46183037144988159 150 175 199 1.3490472025733586 263 652 282 845 288 643 290 563 291 595 217 476 262 691 264 645 281 899 284 784 285 769 286 676 287 704 237 575 236 610 292 558 216 514 219 441 219 433 212 526 220 443 217 458 289 592 221 406 222 423 223 381
22439 -0.13146280213032857 -0.11054908786539296 0.4712758343291592 35 12 17 0.29020278552760803 291 151 292 117 215 118 214 129 213 138 212 143 211 129 210 109 209 116 208 83
22454 -0.13865509468998505 -0.10894306774617527 0.47305939201924851 209 182 217 0.34820171537349981 291 293 292 237 212 356 213 350
22460 -0.14368901014467753 -0.096720359133996722 0.50788339601013088 63 47 80 1.1212754760609855 291 415 292 275 215 308 222 354
22464 0.04400871705832643 0.41392222801865336 0.39877612982882371 78 98 117 1.0796787360109048 281 621 282 598 283 590 284 514 285 473 292 316 215 318 214 342 213 317
22465 -0.13536879896418499 -0.10453009647826765 0.46445496604605491 176 173 166 0.61518593901562135 291 363 292 323 212 231 213 235 210 179 209 216 208 183 206 16
22467 -0.13885275539924571 -0.10616982136732867 0.46770934280032611 21 9 4 0.5450798313054509 291 365 292 328 214 240 213 250 212 233 211 240
22470 -0.1416371576592384 -0.094263365521099582 0.48853935645884827 58 33 24 2.2139058038498027 290 427 292 364 216 383 212 372 211 359 221 274
22471 -0.14166085208712625 -0.097401346806110595 0.48692228989656222 58 33 24 1.7899830480391612 290 428 292 365 216 382 212 371 211 358 209 278 207 124
22472 -0.1382375042653764 -0.10307028694177515 0.49260731930617713 35 16 9 0.96142344555871218 291 412 292 378 215 303
22475 -0.14000868414038239 -0.10762828467762781 0.47349784939471407 25 12 9 0.29121799011922567 291 462 292 421
22476 -0.14533594554826498 -0.097050505944108315 0.4918460127260158 64 46 64 0.4156432103387121 291 481 292 431
22484 0.026594827769133172 0.52649459773948892 0.55275010082190856 151 167 193 0.39002373024818482 262 647 284 750 285 720 291 555 292 520 260 643 261 662 263 611 264 596 265 673 282 810 283 845 215 526 214 531 213 491 212 489 211 481 210 445 209 467 207 408 206 362 205 391 204 380 203 433
22487 -0.13887907761405879 -0.1108886698810423 0.47318933514830058 189 139 172 0.24666691240498359 290 589 291 611 289 648 292 568
12219 -42.238804395906605 -122.19021570670594 157.40831365181404 0 0 0 2.3183440223050606 124 295 145 453 144 579 121 298 146 453
22492 -0.1348343043812974 -0.10212054923949007 0.46271809752722176 187 162 219 0.11733273329323819 217 8 215 15 216 20
22505 -0.14162987854768022 -0.095801952326871387 0.48929689495248363 2 3 1 1.6890116046291004 217 272 292 112 215 180 218 268 213 164 212 165 211 159 220 255 206 102
22511 -0.1422358738271236 -0.098431321084376938 0.46275002310120095 153 147 190 0.22587194991858209 217 4 215 211 216 188
22517 -0.13693148257393939 -0.11421118428583937 0.4710414478570974 185 203 227 0.23194743350626496 292 93 215 267 216 249 214 109 213 130 211 110 210 86 209 77 208 61
22520 -0.13929041416432317 -0.11098565856574345 0.47449284458673091 177 205 227 0.18365667137555763 291 299 215 278 216 269 217 227 218 221 219 205 220 202 221 183 222 200 223 159
22521 -0.13371793519409306 -0.11369141062747914 0.47244993112000971 6 2 4 0.40538423163584048 217 226 215 285 209 342 207 303
1770 -21.37176448349183 17.049046321346943 50.799339984845012 13 33 33 0.95254257011464183 106 780 108 782 109 841 110 437 111 488 112 442 133 261 105 706 107 771 132 295 129 272 130 252 128 353 190 464 187 277 188 283 185 313 189 238 113 707 184 284 164 288 163 213 168 238 167 306 165 281 166 270
22523 -0.13343183816060949 -0.10126909697805286 0.47888956665804278 1 2 1 0.24096244140392353 291 154 215 293 216 137 218 117 214 314 211 286 210 244 220 84 208 249 206 191 205 199 221 74 222 68 204 208 203 211 194 340 193 378 195 364 196 363 197 350
1774 18.662405647548155 3.2472069219957951 60.375299901495836 8 27 34 0.63687956304173854 112 329 115 339 134 281 136 275 133 292 109 227 110 238 111 311 113 335 114 309 132 323 137 298 138 523 139 515 140 469 83 276 59 289 116 328 82 320 84 248 85 275 86 268 87 261 88 289 90 274 81 285
22527 0.086146484657087186 0.18762605984635894 0.60518269496921384 39 31 20 1.226315445945622 233 284 234 323 235 349 236 358 237 334 240 355 289 360 291 324 215 310 212 376
1776 26.022782297908424 0.89591709707318889 63.044321086190507 11 22 19 0.9350303014479151 104 264 107 219 108 207 109 214 110 228 111 299 115 330 133 301 103 240 105 207 106 210 113 675 114 299 116 567 132 325 129 282
22529 -0.14431577543315027 -0.10142807689906583 0.4646844839403117 184 182 222 0.3350605677738997 217 173 215 316 216 314 218 177 219 163
33011 -0.13818822767097083 -0.11117058151221751 0.46800974935250772 210 185 237 0.44209676693609157 192 275 193 44 194 42
33019 -0.13520209874385092 -0.1041187546798254 0.46816182895271208 4 4 2 0.089668402693460728 192 100 193 72 194 67
12266 -289.96254632360882 -138.67657228401342 195.1966264766516 0 0 0 0.82535605708508331 145 418 146 286 147 301 126 405 125 403
22542 0.24658360108511107 0.47231723470079062 0.54382564573957348 40 36 24 0.68815164806511042 230 372 231 417 232 390 233 400 234 448 235 475 236 510 238 515 239 482 240 508 242 459 288 532 291 484 215 454 244 448 287 567 218 415 219 395 214 509 220 417
12271 -303.7182094086055 -151.05351498382106 234.41102810024154 0 0 0 2.5450803717087744 125 636 145 664 146 635 147 634 124 633 126 635 127 712 128 816
22544 -0.072020808080012225 0.030945696349962703 0.42145718493142703 142 165 178 1.7730593630354456 233 369 214 469
22591 -0.13914382621398894 -0.10092735447657475 0.46416001380088762 114 50 92 0.11508115463193933 217 177 216 195 218 15 219 164
22592 -0.14594242400685428 -0.099310904774485703 0.46710040028580679 178 157 214 0.30638502825765329 217 180 216 201 218 184 219 13
22594 -0.13443297136305749 -0.10031518518334027 0.46400481675614685 174 180 206 0.25136906719464025 215 332 217 25 216 204
22620 -0.13478205841416704 -0.11394695054860357 0.47121132292673967 187 160 216 0.46711398628498452 217 307 216 354 218 301 219 269 220 290 221 248 222 191
