# 3D point list with one line of data per point:
#   POINT3D_ID, X, Y, Z, R, G, B, ERROR, TRACK[] as (IMAGE_ID, POINT2D_IDX)
# Number of points: 349, mean track length: 4.9549554140127388
31655 4.0056553460314976 -8.8978989472607513 17.749818360516951 83 78 63 1.2094299170030716 90 2577 37 2028 38 2462
10902 0.56691735472634464 0.18440542550578898 1.2028502283037041 2 6 4 1.1386489717286563 99 2947 102 3635 138 3575 97 2825 104 3206 55 2937 136 3478
31652 -10.528513883916057 -10.003773877398976 33.441914760828887 53 54 30 1.8605953233974424 38 2455 90 2568 37 2021
10899 4.8975099122552468 0.016291506575464985 -2.1355785931954565 19 25 15 1.5512828473460809 138 3568 180 3086 102 3630 99 2876 101 2855 137 2546 140 3219 179 2075 178 3344
21172 0.31300785618296373 0.8303022645032585 -0.44645054674137774 106 112 92 0.62124079276392175 119 2211 121 2246 164 3164 163 2422 159 1238 166 3509 125 2305
10894 1.0331900454632164 0.69454846609319743 1.3228090065131997 134 128 107 1.5472827892623489 3 2977 49 3061 102 3562 138 3586 99 2903
21167 -5.0899242587187086 3.409558540441922 0.84600583216916292 58 74 24 0.26768470565760072 162 2707 121 2168 164 3064 163 2283 123 2498 165 2287 166 3049 81 2143
31646 -0.50358068398199374 1.128684777118556 -1.5992779781270066 0 0 0 0.54921094828919303 89 1295 130 2291
10893 0.47379279335171243 0.88924235728034096 0.43367422746155154 66 73 76 1.8440950142153185 99 2787 102 3557 101 2728 138 3523 104 3316 55 3004 57 2976 108 3571
21166 -5.9034023459144969 2.7837431564844808 3.5347939225039462 101 112 54 0.23357954342445544 162 2687 121 2166 164 2567
10892 0.93098082226238721 0.81045696324704541 0.41981830203587284 240 244 243 0.83338984607859556 1 2875 102 3556
21165 -7.9399010135641781 4.6835005469521285 0.0034750292857677369 100 116 61 0.17514854295217452 162 2658 121 2152 164 3032
31644 -0.52454599082901943 1.131205064133914 -1.5863385142896071 0 0 0 0.52836442015909924 89 1747 130 2289
10891 0.93098082226238721 0.81045696324704541 0.41981830203587284 240 244 243 0.83338984607859556 1 2876 102 3555
21164 -8.7598071710863064 5.1489863010064933 -0.74773768567055388 109 106 56 0.09687765731710006 162 3207 121 2150 164 3031
31643 -0.47923129341168269 1.1157285562929684 -1.6685834920596561 0 0 0 1.123691769596606 39 1358 90 1867 89 1285 130 1510
10890 0.50529634122910239 0.62669730995563744 0.79452588005693314 223 227 226 1.9102667382189271 3 3294 102 3546 137 2558 49 3154
21163 -8.419681029986771 5.8922686217766245 -3.4697139866805728 41 53 19 0.25745148502351867 162 3223 121 2147 77 1547 122 2419
10887 0.3225850424922489 0.2253774308646902 0.51837660586265555 25 33 20 0.97910726429968797 49 2907 99 2879 102 3526 51 2799 98 3196 138 3497 97 2769 104 3067 106 2864 54 2938 5 2744 136 3410 45 2960 46 3253 96 3186 134 3207 93 2595 44 3166
21160 1.6135286102866273 1.4482486587997156 -0.035916660317297504 67 63 58 0.43781360513332263 161 1465 121 2121 163 2236
31638 0.37999320062002406 1.060832916472991 -1.3854183620433576 29 31 25 2.8904279312505938 127 1726 37 1808
10885 4.1743178047376075 -0.40304947033048261 -2.4147740466303165 9 11 4 1.0045966182070787 49 3100 102 3514 138 3563
21158 1.3952295014188612 1.9241416440526811 -1.5295035699775619 48 50 37 0.23161118638679909 161 647 121 2090 163 1634
31637 4.8066582104844517 -5.6800059195657164 18.363100214553903 40 46 32 1.1764125661510085 130 2216 37 1801 91 1889 94 2461
10884 7.3834194510544897 -2.5919146161236459 0.64553087770661755 12 14 9 1.5152595775379785 99 2862 102 3513 138 3354 51 2910 97 2756 180 3066 140 3157 178 3314 104 3186 53 2924 54 3286 5 3106 136 3296 96 2999 176 3046 43 2827 44 3007
21157 1.4896814191600478 1.4256499300200058 0.13980208525011772 83 83 59 0.52694151172355885 161 1466 121 2084 163 2217 77 1818 187 1839 79 1385 27 1963 29 1174
31636 2.5817125967945698 -5.5273659433435993 17.181521515438533 20 22 17 1.277947190743397 89 1096 90 2279 37 1783
10883 4.408901239224452 -0.58491775384688305 -3.4912351044679415 6 9 4 0.47711191719344104 49 3038 102 3510 50 3039 3 3109 51 2908 180 3115 140 3155 142 2989 52 3152
21156 1.412040751240623 1.5017842037579974 -0.068833569309980094 27 27 18 0.28370885422456116 186 1806 121 2081 163 1612 187 1820 79 1382 161 718 27 1955 165 1639 188 1420 189 722
31635 6.1271915847061917 -3.4593478660838253 5.7028145282415057 8 13 5 0.51565512729695984 170 2329 172 2235 37 1772 93 1704
10882 0.37265723559464414 1.2559299299123587 -0.11940455806365238 64 65 44 0.7955331980746857 99 2809 102 3462 101 2755
21155 1.2767165825241698 1.9568819950310581 -1.5251747705947531 57 59 43 0.34491052985181059 161 1359 121 2075 163 2207 187 2291
31633 7.2024678551470469 -6.8473721419678384 14.422709748258178 8 12 5 1.4903257212689329 39 1688 37 1766 91 1505 89 1639
10880 0.45891693420801705 0.87948807073502466 0.64288039291915589 143 142 137 0.87990713427327527 99 2798 102 3446 138 3250 104 2638 57 2830 106 3108
21153 1.2872207706830121 1.6024182564285256 -0.4478693022433487 21 24 13 0.33204344424587873 161 1388 121 2059 163 2192 77 1790 187 1802
10877 0.45768318409905351 1.3745348455472783 -1.1727839232149944 3 7 4 0.90450471537688149 49 2762 99 2802 102 3442 101 2534 138 3427 139 1412
21150 0.34799780188811097 1.3900337064056085 -0.85947002918414728 93 94 67 1.8647648681263895 77 2044 122 2971 163 1990 75 1791 72 2178 25 2096 76 3129 164 3271 23 2508 120 2583 78 3428 79 2026 27 2847 123 2613 29 2945 80 3284
31627 4.3029531802657344 -7.9625546464190453 18.179454100046637 89 87 72 0.055412447023939236 35 1950 37 1741 36 1600
10874 0.40381622612951668 0.79929613106996278 0.60753056562084207 23 27 26 0.80710112354431762 99 2600 102 3437 138 3237
21147 0.41060585634889374 0.83298235705488033 0.40576187603060682 213 219 212 0.44080905955414279 186 1640 121 1824 164 2759
31625 -1.0294164843475817 1.1185965244523421 -0.90963934685200742 22 23 17 0.62061156714305865 35 3129 37 1727
10872 0.39989334908721247 0.86674094892679665 0.04994120535686019 127 137 139 0.22751656378771404 99 2592 102 3433 138 3227
21145 0.67761781754963379 0.67717665354836343 -0.042804593051940037 6 12 10 0.48177500836980047 121 1821 187 2040
10871 0.47541793139773164 0.73714683090138999 0.65074229969833475 20 25 20 1.1698390760256328 99 2599 102 3432 100 3258
21144 0.38846822322211172 1.021693246985637 -0.35858601685746488 123 131 85 0.25853039497294594 119 1803 121 1812 164 2776
31623 4.0874265736253781 -7.4219127548947377 16.532493771839665 47 49 38 0.42421104864312742 90 2202 37 1717 36 2085 35 1326
10870 0.3080927802475823 1.0820157034361519 -0.72177732230542535 84 92 94 0.36755409284937784 99 2783 102 3430 101 2724 138 3417
31621 -12.936289678843597 -8.5973067116976658 33.826816031515762 139 140 119 1.6052790233624457 38 2121 89 1542 37 1703
10868 0.41551542273373565 0.69872312106649315 0.071824873271781928 10 11 7 0.23231708276941135 49 2937 102 3425 138 3402
21141 0.43258858035118541 0.81708751033998195 -0.022783325232616544 125 128 74 0.96944147284839899 161 1159 121 1786 163 1920
31620 -13.611772625708163 -8.6306362057383161 35.102173804220058 50 53 30 1.8484404986196998 38 2450 90 2190 37 1702 89 1540
21140 0.38872288616270539 0.80516442094345986 -0.24092521505070599 89 102 56 0.15209831519200223 162 2863 121 1783 164 2731
31614 4.6373393870925543 -8.7110183620729025 16.665761857732427 77 74 59 1.1473593465164842 89 1558 90 1655 130 1764 37 1692 91 1818
10861 3.850497908291536 -0.26098193067774428 -3.5398283151068561 67 70 51 0.29399991410542647 49 2667 102 3393 5 2407 6 2554
21134 -4.1956720654304176 2.1402724979399825 3.9280212207924063 107 113 51 0.24030891424936901 162 2743 121 1693 163 1750 123 1086 165 1108
31612 -7.2882881010252101 -23.860177250787256 63.850719752409631 214 219 213 1.1175962894748375 35 1920 88 2069 130 1191 37 1686 33 2269 128 2237 34 2476 86 2704 170 2236
10859 9.0507348683252129 -3.6882788837252174 2.31143730614833 15 18 8 0.19130533255855614 99 2502 102 3388 138 3125 51 2794
21132 -4.9081436519035222 2.5468442867495513 3.3483081575196576 99 114 58 0.19029993484081087 162 2713 121 1668 164 2593 163 1721
31611 -7.2451696156875451 -10.793836027978813 31.352370811813504 69 77 54 1.6815413029922688 38 2105 89 1523 90 2170 37 1681
10858 3.8388041664270895 -0.33145013750924096 -3.6399481343613247 21 26 19 1.2173615052743092 49 2894 102 3387 4 2842 3 2887
21131 -5.4632120291459509 3.3795720881917104 1.267607073512657 58 71 24 0.19320032015706409 162 2708 121 1663 163 1713 123 1642 166 2616
31610 5.7097236877001887 -8.7827859860156732 14.421204836960264 61 64 47 1.208450336710857 90 2138 92 1336 130 1742 37 1672 39 1062 38 2111 36 1992
10857 7.0619029431176594 -3.0281822473360904 0.082636200200377929 17 24 16 0.79794804865012059 49 2888 50 3033 102 3380 138 3344 51 2775 140 3044
21130 -5.441703028061541 3.6168906210218337 0.43975212269730996 66 84 29 0.15425943175263035 162 2705 121 1660 164 2588
31609 4.538381140237421 -9.7347508580148681 16.030910143555786 238 240 233 1.4369461158959143 38 2091 90 2133 37 1644
10856 7.9779277131073787 -3.9932744686256276 2.126775587026823 14 22 11 1.5979551334011968 50 2840 102 3379 49 2641 138 3101 99 2471 51 2533
21129 -5.2989214352724732 4.1324169744029113 -1.2234462981622245 75 91 38 0.091452971826896823 162 2702 121 1659 164 2611 163 1736
10852 0.41401964877779962 1.1149053217539651 -0.068867102139908917 152 154 149 1.3226733361220617 99 1965 102 3296 97 2550 55 2695
21125 -8.8738285503261771 3.6239274758826858 4.531575462122249 87 103 49 0.10088514044041712 162 1968 121 1616 164 2516
10851 0.47301828596174039 0.8824079363870363 0.25669635894761944 3 8 4 0.30374069300231998 99 2601 102 3288 138 3238
21124 1.7435565070143062 1.0935830672096229 0.97332646135676559 68 65 58 0.37984508663130401 75 1462 121 1589 163 1649 188 1384
31603 1.6144924667120777 1.7353014234399804 -1.0125910732899728 105 102 95 0.032276461703535805 129 1690 37 1528
10850 0.58508724349990493 0.63193413960634126 1.2363645660197919 0 2 1 0.51451202011624619 49 2756 102 3284 101 2513
21123 1.7488734995273538 1.1213728765663782 0.89439312496994106 133 125 111 0.062906654834669493 161 1512 121 1587 163 1648
31602 1.055822106488578 1.877165473411601 -1.2034464432584635 52 58 36 0.091316226892771857 129 1356 37 1525
10849 0.60173231384759573 0.63527957497026666 1.2832603161410137 153 157 156 0.32264838753570635 49 2757 102 3283 101 2288
21122 1.6913555804273881 1.2242313007915364 0.62184623160902308 102 102 93 0.24525878377650329 161 1493 121 1581 163 1646 77 834 187 1407 79 1394 27 1274 123 858
10848 1.0166314150136799 1.2405236845887462 -1.0648138136297796 2 3 4 0.69323228334959064 49 2476 102 3277
21121 1.5624879237971714 1.6942140762588753 -0.78381134929771257 51 48 44 0.18597045870083434 161 708 121 1574 77 1402 187 1399
21120 1.6167357875223107 1.0910449493360657 1.0812978151686263 39 38 25 0.33341239234262932 161 822 121 1560 163 890 187 843
31599 0.41512344660580491 1.9750849181776926 -1.0962858044557937 55 63 34 0.28714280268833459 129 1348 37 1495
10846 0.33599855619779234 1.1194822863238023 -0.60560901194942218 5 7 4 0.36505852375516956 99 2611 102 3274 138 3245 97 2544
21119 1.5728838394632982 1.3430235916514948 0.38549544176394812 45 42 32 0.32060657216158356 161 797 121 1556 163 885 77 1386 75 1425 187 1378 165 914 189 672 190 522
31598 -0.45047780822537709 1.125729048830324 -1.7359361027063112 0 0 0 0.0053477388572603108 89 636 130 2005
10845 0.33531883799434659 1.1212931807783679 -0.60548631033152778 5 7 4 0.41348221155083809 99 2612 102 3273 138 3244 104 2610
21118 1.4811653564426908 1.788506039662437 -1.047654317483447 51 50 45 0.37302590246261291 161 685 121 1546 187 1854 79 1429
10844 0.34852664897917351 1.0998938228737001 -0.54804989591307063 1 4 1 0.17069723201613207 99 2609 102 3271 138 3242
21117 1.5665410663545696 1.1399471564479549 0.95104139027039147 23 25 14 0.49246179960988001 161 800 121 1531 163 847 187 840 188 732 165 1566 83 1432 31 1826
31595 -0.47842768915582801 1.1180967779558395 -1.6633561315262833 0 0 0 0.043636447328998629 90 2336 130 1954
10842 0.32661886227128861 0.96924711574838207 -0.4803147214958029 19 23 20 1.0339411005159833 99 2299 102 3252 97 2261 104 2589 53 2302 51 2627 57 1916 106 2627 55 2352
21115 1.4550756697505469 1.310674402671302 0.50194404471472254 21 25 11 0.49867942165084217 161 767 121 1525 163 843 77 1358 187 785 186 799 123 776 81 844
31593 -0.47967776965638886 1.1141899459685405 -1.6643073828777597 0 0 0 1.1806664668243303 89 1270 90 1840
10840 0.39224315500012574 0.90318679837191396 -0.15113335406881248 12 13 14 0.47576106130742229 99 2595 102 3249 138 3230 97 2260
21113 1.2981195855711449 1.5653363113575638 -0.42998810046849362 53 56 37 0.58675910009166077 161 1390 121 1490 77 1323
31592 -0.49777817778732458 1.1094752498751972 -1.5269933963278475 0 0 0 0.32581989552996105 89 1267 90 1159
10839 0.44662656985627119 0.68186067177751231 0.50643303810915785 9 11 10 1.7374697594167219 49 2733 102 3246 51 2633 104 2895 106 2914 57 2332 55 2380 108 3222
21112 1.2674826142574316 1.6777938987235292 -0.5508041193334291 74 72 59 0.21695204111238614 161 654 121 1489 163 1577 77 737 187 1801
31590 -0.57640899021799341 1.1074013817145927 -1.4345408297813482 0 0 0 0.097760497895730603 89 1239 90 1858
10837 0.54009571394354972 0.45839816072461309 1.1612514763460369 81 86 86 1.3797918470354733 49 2730 102 3241 101 2696 139 1900
21110 0.62788971308824681 2.2612536768382991 -1.7187887219210429 54 60 32 0.22309426703734891 161 541 121 1418 163 1493
31588 6.16289392625466 -2.4355809599502152 7.0146039785184424 33 34 25 0.14826282068778301 131 867 37 1335
10835 0.35098397821281857 1.0102127270205303 -0.8306526139193251 4 4 2 0.27936887683999839 47 2822 102 3237 101 2241 138 3217 99 2588 137 2001
21108 0.42950425037622253 0.80754158690770783 0.53316311581519327 75 84 60 0.56783883667020019 186 1179 121 1272 164 2211
10834 0.25350905037277088 0.99489755342179653 -0.86552663039378175 95 87 74 0.48764222659960449 99 2578 102 3236 138 3210
21107 0.35045636949737918 0.98585830324215595 -0.45969662429216857 134 141 97 0.072758493853368494 121 1249 164 2188
10832 0.40810912964510698 0.60719097203957517 0.54751525319952687 5 8 6 0.24454450199194996 99 2287 102 3233 138 3213
31574 -0.13863937766936249 0.81222119251809199 -1.1175747939245337 0 0 0 2.0426137606970527 31 486 90 1771
10821 4.0656907401423252 0.05056953847865054 -2.7645839405355255 42 51 34 1.3578949888744749 49 2705 102 3186 101 2659 180 3002 138 3382 140 2908
21094 -4.4923571490234684 2.6169697698959915 2.6455896819297817 74 85 28 0.15395581666680011 162 1173 121 1103 163 1075
10820 4.0141852238406726 0.046398730737447109 -2.7508168747782968 42 51 34 0.97439341190242212 49 2704 102 3185 138 3144 101 2658 180 3001 140 2907
21093 -4.860026602131482 2.6921364412089401 2.7458662895129442 70 80 30 0.13522515651178796 162 2712 121 1102 163 1720 123 1647 165 1751
10819 8.6882530973372614 -2.954110549888914 3.7938373640288954 27 37 25 0.20343635972995236 50 2893 102 3180 101 2652 140 3070
21092 -5.0969325351097066 3.5050842972690734 0.43702555713854147 109 124 68 0.2149719481425913 162 2004 121 1088 164 996 163 1050
31571 4.7212308920980179 -5.9820930424992094 17.626233686246536 12 17 10 0.53537177164908467 89 1138 37 1234 90 1797
10818 8.5683412599637343 -2.9139334937730816 3.7612878067927125 27 37 25 0.47763429942255259 50 2892 102 3179 101 2653 140 3069 178 3045 97 2475 131 1922
21091 -5.4518305074411115 4.0102592640276917 -0.65883945448724757 75 93 33 0.22160731037143727 162 1107 121 1083 164 1992 163 1706
31570 4.5434290259548682 -6.7337296982637724 18.401900420078643 83 88 69 0.78223351365109162 39 1709 89 1100 37 1232 94 2446
10817 4.3251623346159294 -0.052812535443860498 -2.8052402702188859 5 10 3 0.57873263527433061 49 2703 102 3174 138 3143 101 2435 140 2906 51 2578
21090 -5.8782256076123813 4.6436867304355571 -2.084484278475299 107 117 61 0.26754640532210328 162 1054 121 1075 163 1042
31569 10.134941783162899 -6.4043780909001251 11.092583603947544 37 42 28 1.9399510788877468 130 618 37 1206
10816 5.3634823710329496 -0.69660301293648286 -2.002611255508806 73 76 60 0.36425817292898133 49 2690 102 3170 138 3138
21089 -6.3130562950753299 3.5075849393290581 1.3952404949382202 46 61 18 0.19911330480222911 162 1982 121 1055 164 1975
10814 4.7746605193383216 -0.70127695182363425 -2.1680800501204507 78 84 66 0.4641586899115806 49 2678 102 3150 50 2855 138 3127 104 2804 53 2590
21087 -6.5546215530462666 5.0398559074102627 -2.6312823425895049 92 105 51 0.18640107694162325 162 1975 121 1043 164 1989
31566 9.044643106389934 -6.7606668580870046 11.78144623698538 39 45 20 1.84836145570487 130 1334 37 1199
10813 4.931751049202922 -0.84782520064258315 -2.2318181785339783 11 14 3 0.39836250450055166 49 2291 102 3149 50 2190
21086 -6.6280026110180943 2.7981497721447131 4.6682730193500861 101 109 52 0.086885907591141606 162 1988 121 1035 164 1986
10812 7.2913200311784321 -2.4067420960373038 0.54447926352920994 12 14 8 0.6746377863036781 99 2174 102 3142 138 2771 97 2146 136 2354 96 2301 43 1302 44 2342
21085 -7.771630932019284 2.9481106653807405 5.3849355812843598 62 78 28 0.15893889298500091 162 2667 121 1034 164 1948 77 1067
31562 -16.772438885821835 -7.6544462872686783 44.556474338767757 14 15 10 0.57507187977384311 35 433 172 2171 37 1174 36 927
10809 4.5242847189726314 -0.85487360016449532 -2.3739470073349196 28 33 20 0.10351304526075575 49 2665 99 2487 102 3133 138 3119
21082 -9.4746520084929298 4.9167716297892774 1.0891514424756468 69 78 27 0.13268855029102555 162 959 121 993 164 881
10807 9.2002709418867497 -4.0139715541715431 2.3018559658999815 10 18 7 0.50137911642633581 49 2670 50 2847 99 2489 102 3108 138 2753 51 2545 52 2870 54 2948 5 2765 6 2984
21080 -9.3565790954926857 5.1403696488268933 -0.049984808967588328 62 75 31 0.2298166781145658 162 1930 121 988 164 1934 77 230
10806 12.010770731085575 -4.4807529862437603 -1.7919323722459042 61 71 37 0.38468812688457399 100 2995 102 3100 1 2623 47 3003 138 3090 180 2758 140 2548
21079 1.7677905675828782 1.0565633088915731 1.0712817647450354 131 115 97 0.29054912232341285 161 865 121 959 77 838 187 904
31558 -18.782676563122294 -13.434448029501761 57.974044640454821 246 249 245 0.92359078770163539 85 964 89 1061 90 831 126 687 37 1143
10805 11.938553342980748 -4.6520798651060389 -1.6950609864193378 22 28 18 0.24425223520558836 47 2769 100 2986 1 2621 138 3089 102 3099 180 2757
21078 1.7262730360880849 1.1028949131588852 0.96297667939113685 49 47 41 0.22157800336526653 161 821 121 956 187 903
31557 -11.567401305548893 -7.6712471985181834 34.36085813716771 246 249 245 0.89460419639737876 38 1690 89 1062 90 832 37 1142
10804 7.8654877766837679 -3.2759872159716661 -0.3039783414438787 34 42 29 0.47285538025092877 49 2643 50 2519 102 3098 138 3087
21077 1.5180314722862616 1.7517681233255111 -0.95051934908080016 203 199 200 0.19196144882380839 186 658 121 937 163 960 77 811 187 889
10801 8.5853433853081089 -4.8105902493670882 3.1866260084858657 16 23 12 0.70925986382834605 3 2895 102 3084 180 2958
21074 1.5953020103173272 1.3731993471088559 0.24260325644106379 90 85 81 0.084535183850327225 161 796 121 908 77 829
31552 -2.4148507722323869 -23.360534595395148 61.329321252193942 223 224 219 0.38420133778421794 34 832 35 252 86 1698 37 1115
10799 0.30215488062202933 1.3602371018133792 -0.35551879261918135 211 217 217 0.34850417978691944 49 2079 102 3013 51 1377
21072 1.4702292426925034 1.514987224059402 -0.11961809702430078 104 98 76 0.16064561258809149 186 721 121 899 163 875 187 819
31551 -13.704740359793078 -8.302714071708106 36.082847442403818 27 32 11 1.7039587139614916 38 1649 89 1021 90 825 37 1107 89 1570 36 882
10798 0.49283759568569085 1.0990176631117168 0.29819788721718737 103 103 97 2.0272026448259397 49 2059 102 2993 51 1371 103 2047 53 1973 55 2044 57 1987
21071 1.4765198873824501 1.8326581832257651 -1.1975872307376396 43 43 33 0.26885884571686314 186 610 121 874 77 809 187 860 25 1016
31549 4.6694022295952786 -9.4292191458778518 18.147587983194658 69 65 53 0.55781055286010373 130 1207 37 1096 38 1638
10796 0.43157432091235221 0.87952065184306261 0.52777694302135125 5 11 9 1.378640974351981 99 1961 102 2981 104 2231 106 1764 57 604 108 1256
21069 1.3757123766704298 1.8314914879127462 -1.1175732849093547 31 31 21 0.28918175931868889 186 611 121 836 77 768 187 804
10795 0.45402049950703588 0.9287178479869731 0.52059920021444828 5 11 9 0.54680100227982564 49 2462 51 2373 53 1949
21068 0.46556657645409505 0.92192677423281433 0.26191653720565972 4 5 2 0.42195300343054892 162 1377 121 473 123 458
31547 -1.4185116024090567 -14.196491024601663 37.214838001628991 0 0 0 0.63463459627436003 38 1668 40 1983
10794 0.43061688218780286 0.9058120944735879 0.32097650132200262 7 8 10 1.5953559740824179 99 1948 102 2968 138 2939 97 1367 136 2510 134 1899
21067 -0.91211117359320049 2.8585662895085671 -1.9089815849103584 96 107 65 0.27129172975796817 161 360 121 463 163 1312 187 1536
31546 -1.5369401311829693 -22.019709055150077 54.215196577005401 219 212 193 1.189483826964171 35 1283 130 1194 170 1209 172 1458 37 1085 36 1564
10793 0.43309841812543476 0.87937081908407144 0.41747669275574667 4 5 7 0.26826616078284021 99 1947 102 2967 138 2938
21066 0.65808440730076312 0.39146486944251857 1.1097722389514697 2 8 4 0.20003368389697795 75 395 121 453 164 1326
31542 4.6289476205615108 -9.577614499107451 15.983647558553672 136 136 122 1.2102431374828579 90 1591 37 1029 38 1569
10789 0.58538486372945131 0.83875380650666886 0.19798186168139742 4 5 7 0.31656962293137969 49 2426 102 2954 101 2261
31541 4.2681521986793483 -10.101541628910503 16.225413062119543 111 116 100 0.95804300797799424 90 1565 37 1014 38 1545
10788 0.48027335447471747 0.6317815215616247 0.83913035740973452 5 7 4 1.5072947956980403 102 2951 51 2297 55 2409 106 2660
21061 0.36023038783354655 0.62176457240363181 -0.10605018632832615 92 102 77 1.1483026451787557 162 1281 121 365 77 287 164 1256
31540 3.5034192510773106 -10.876200134283176 18.306688893511858 126 126 102 1.5974268893835488 90 602 130 251 37 1013 36 642
10787 0.38033530995848713 1.2257752846023933 -1.1890805766202845 23 26 25 0.21973793359958516 99 2311 102 2937
21060 -2.6191249362070073 3.4643962078037394 -2.0234768528971885 71 89 39 0.24395109817533189 161 161 121 350 187 1433
31539 3.2446300995962662 -11.214393107359362 18.779963644602773 140 141 125 1.5307540198470921 38 1541 88 1419 90 1559 92 1277 130 1138 132 1199 37 1012 40 591 42 1277 94 1433 39 79 41 1058
10786 0.29321129852499817 0.9284836774703592 -0.33033710606274042 66 70 67 0.27014166856773369 47 2064 99 2298 102 2933 101 1868 138 2901 137 1652 2 1726 48 2087
21059 0.29118508488058686 0.5699427470224141 -0.28528371133758951 204 211 206 0.38310581175652253 161 280 121 325 164 1207 163 1228 187 1507 123 1182 165 1315 188 1614 166 2090 124 1012 81 297 83 338 125 1249 168 2173 126 904
31538 1.7006459171066464 1.7434298004296007 -1.165830365617506 86 85 76 0.15734250278904499 35 1812 37 923
10785 0.29950972883489174 0.92699018866146088 -0.3312253717022674 66 70 67 0.39761767121702946 47 2063 99 2297 102 2932 101 1867 138 2900 97 1845 137 1651 139 1376 103 1196 136 2911 177 1116 193 1337 95 1244 134 1876 133 1032 175 358 43 600 131 362
21058 -3.1233949303278017 3.4058813721371997 -1.2001422811797422 93 110 53 0.16899703509850242 161 115 121 321 164 1190
10784 1.9814078631821936 0.58558362612782955 0.19395366565434133 3 5 3 1.5469262093598557 49 2427 102 2930
21057 0.36376841052115366 0.23149435729187956 0.45034018176752277 79 80 75 0.53775659781274521 161 291 121 301 164 1153
31536 -0.44986006122043931 1.1262593122441154 -1.7366794386386042 0 0 0 0.37768874608286029 89 637 130 993
10783 0.4230731166495999 0.64106779347410925 0.44939503847746876 2 5 4 0.22662740378189036 99 2288 102 2927
21056 -3.3898098491756317 2.4498819777204397 2.0741783759834664 107 121 65 0.32709005407700403 162 1215 121 296 163 206
31535 1.9982085726885792 1.1666624146249005 0.29706493562790859 118 117 112 0.20739227601043556 129 1224 37 737
10782 0.30547657198800893 0.81425417940935041 -0.2248496567873372 0 1 0 0.95618964379278593 99 2295 102 2913 101 2237 138 2872 97 1833 136 2891
21055 -4.2268610361025987 2.1833209977494619 3.8258277724716976 105 118 62 0.20485404631051926 162 2050 121 252 164 1064 163 1748
31533 -0.4516840427530498 1.1220263591948403 -1.7248740897827535 0 0 0 0.42592663763177319 90 1172 130 944
10780 4.402616332769191 -0.57764402373603119 2.8409751891460568 92 91 89 0.35873325569598652 49 1404 102 2904 101 2199 180 2603 140 2711 139 1653 179 1608 181 1794 194 1619 193 1490 177 1758 135 1523
21053 -5.8387764696337641 2.6362817496417703 4.3128209877736525 107 115 56 0.15813384452432369 162 1136 121 166 164 965
31530 -0.6195429006369888 1.0968375920681368 -1.3531002364055829 0 0 0 0.73815871242636488 89 459 90 1082
10777 0.40388455335794315 0.67578365355105852 -0.11321560254828841 135 126 114 0.7131815937392616 138 2389 180 1860 102 2894 137 1135 179 268
21050 -7.6295260198995782 4.7789040808935139 -0.63482194175944118 59 75 29 0.24565478325452192 119 107 121 61 164 939
31526 -0.64882826214040989 1.0708022772063539 -1.2290011104615264 0 0 0 0.57036263840321788 89 1205 130 1900
10773 1.596662088493322 0.31921784108322926 0.23530335271939642 106 108 97 1.9247053686767019 99 1291 102 2880
21046 0.49772511252374846 1.6702422578845184 -1.0191136020388587 60 63 62 0.70775401988980291 186 2484 187 2654
31525 0.19935631821283967 0.72453598805626884 -0.99801618076156695 0 0 0 0.041149026513086467 40 978 89 423
10772 0.48119426826236278 0.3280829604931666 0.79709019739946396 3 7 2 1.0307010887741208 99 2250 102 2878 101 2201 138 2848 97 1797 140 2729 139 1331 180 2285 141 1400 178 2538 103 1967 181 1316 143 1111 105 2029 104 2551 142 2560 144 2296 144 2614 110 2859 106 2595 194 1178 136 2873 177 1014 193 828 135 1538 133 955
21045 0.94905475620988422 1.1907035006364488 -1.4522340593938816 97 94 61 0.025261730031007089 73 2146 74 3436
31522 10.047216643114977 -4.9613448030617695 11.525651318236878 38 44 30 1.410158465634691 130 733 37 549
10769 0.22537627511580979 0.50702780014355509 0.0036900800607152936 63 59 50 2.7143121416181919 47 2018 102 2863 140 2720
21042 1.5264872753225369 1.643830308268019 -0.57454758880505519 200 201 201 0.34382877153602892 157 1550 117 1354 71 1481 159 1539 119 2034 73 1400 75 1954 161 2017 186 1788 184 1133 185 1258 121 2533 163 2231 77 1827 187 2305 21 2050 25 1678 23 2002 79 2187 27 2573 123 2460 165 2238 188 2407 81 2393 83 1975 189 2253 167 2101 125 2109 127 790 169 1396 190 1507
31521 5.8425913566922976 -2.5233912999860575 6.4078387356386619 12 17 10 0.16896555157419693 129 286 172 967 37 543
10768 0.28307158348633071 0.46844894236600082 -0.28201581561627803 16 21 7 0.42049071927403225 50 2539 102 2858 104 2510 106 2550
21041 1.6391207231301128 1.7845711275031579 -1.2438141331994599 203 202 187 0.55914073195771663 157 658 117 569 185 1221 186 2144 159 2020 119 2404 73 1919 75 2297 161 2593
31515 5.7772273490666315 -2.9613791462677175 5.7710966690603547 12 21 5 0.31569110003178585 131 26 37 464 176 887
10762 4.1004591802603025 0.0015511488074611425 -2.9159761991483628 6 9 2 0.43004299120398626 49 2317 102 2836 138 3145 101 2128 140 2632
21035 0.45188415954657185 0.65436003847682089 0.18024907509013344 83 95 60 1.5093711741656468 159 1870 160 2801 119 1776 73 1697 120 2484 161 1773 75 1675 186 1978
10761 7.7571189558708022 -2.1426662213460537 0.34819879590005232 16 17 11 1.2104913133141397 99 2188 102 2823 138 2790 97 2156 140 2604 180 2149 178 2416 144 2772 105 2257 106 2845 136 2809 95 1970 176 2899 43 2339
21034 0.43835885484555043 0.73393415309815657 -0.12642411432918438 118 122 92 0.82365068950452458 117 1622 118 2563 71 1227 186 1586 160 2162 159 1850 119 1770 161 1733
31513 10.033936707977976 -7.4495128143566802 15.271465524616138 37 45 18 0.71953509134285998 89 320 37 459
10760 7.7413562394649764 -2.1317886841002802 0.35741750368318942 16 17 11 0.30742775511032044 99 2189 102 2822 138 2789
31510 4.7576467312528097 -6.176948095505912 17.729207038220398 52 62 45 0.41353030617123104 89 308 90 983 37 444
10757 3.5488943393088093 0.049471747235624891 -3.339820207270602 17 20 13 0.61632012155879246 49 2295 102 2812 51 2203 104 2478 53 2204 54 2619 52 2594
31508 8.117554415945861 -5.0440036126135812 8.4155667100203342 26 38 18 0.90545920846610495 39 383 37 403 91 225
10755 7.3772690107847678 -2.3955257380667248 0.66044822389892643 51 60 45 0.36502198042521355 99 2173 102 2803 138 2772 180 2523 51 2184 97 2142 140 2603 178 2798 104 2020 53 1763 142 2437 144 2753 54 2637 5 1950 136 2791 96 2300 134 2653 176 2284 95 1951 43 1927 93 2129 44 2345
21028 -2.5284823474165257 3.285264207344031 -1.2452183032288671 113 122 59 0.80674220279332076 161 2483 186 2428 163 2727
31505 10.582715907052268 -8.0961966047924818 14.77753795001076 39 49 20 1.0167051172274775 89 272 37 394
10752 4.2723584600554121 -0.71968312826165315 -2.8346487631754917 10 15 6 0.43162603777561942 49 2280 102 2787 138 3107 180 2785 140 2582
21025 1.4355639498845141 1.8864421675168968 -1.3902331662955054 79 74 50 0.48113705232345821 161 2384 186 2345 121 2782 163 2861 187 2689
10751 7.2471117489016459 -2.7652393627438858 -0.21305522062886967 10 13 7 0.35959894596156322 99 2152 102 2778 50 2169 47 1970 51 2148 180 2486 140 2862 178 2377 104 2766 53 2554 54 2593 5 2419
21024 0.538206520897619 0.52499728888688479 1.084981869796805 111 114 76 0.7038572895590578 75 1784 186 2311 187 2432 124 2987 81 1779
31503 10.272788562994171 -8.3536910178396404 16.483986452314365 18 24 14 2.3901046909128612 90 1744 37 392
10750 7.2304379730498356 -2.7562880319029106 -0.21216215426111965 10 13 7 0.28628976334181172 50 2168 102 2777 99 2151 51 2149 180 2487 140 2863 104 2767 53 2555
10748 9.309650194050608 -4.2428948460370721 2.540934678837802 14 17 8 0.57021808844970945 50 2557 102 2771 51 2543 52 2856 6 2982
21021 -2.5375796357806544 2.2017756164442979 1.954665059349318 64 76 28 0.42711176800809209 161 2172 186 2235 187 2343
10743 8.3722025230360124 -4.6005113027370754 3.7531215715249484 9 17 4 0.38365199884631046 50 2161 100 2283 1 1240 102 2756 180 2083
21016 1.5360258551937189 1.5078336565740569 -0.1903416217696815 124 117 92 0.65679123962884034 161 2036 186 2155 187 2309
31495 6.1451625885705381 -7.2509677018348198 14.771045338793156 19 25 11 1.3061327324567038 89 206 90 798 128 1364 130 481 37 330 36 1608
10742 8.9346174155251123 -5.0675591899962802 2.8573753701921838 28 36 21 0.90027977216631105 3 2501 47 2353 50 2516 102 2743 138 2727
21015 1.3002041763004744 0.92830240873537562 0.12982863068052186 25 28 18 0.49205818770701804 117 2155 159 2008 186 2137
31493 4.9146275136674955 -6.006353443738667 12.888119649396574 64 72 54 0.91290755667672396 94 826 37 326 36 902
10740 0.37756402737498068 1.2152259632050166 -0.17258960055803349 75 73 59 0.60385375340172265 99 1989 102 2573 138 2533
21013 1.2033372473071045 1.7216031596266859 -0.72841968346441621 24 29 13 0.40291458670421904 161 2368 186 2114 121 2762 163 2846 77 2387 187 2678
31492 5.9211364161628151 -7.6630724238744081 15.725177163158913 19 24 11 0.82451772607690865 89 140 90 796 130 477 37 324 38 981
10739 0.50509878300969568 0.92057072663046569 0.96513855140825033 11 16 11 0.33434152889485019 49 1483 99 1455 102 2563 101 1463 138 2527
31491 5.024173359942167 -7.4460541572468486 15.823985156817519 43 47 31 1.0540466147526393 89 137 90 793 130 476 37 323 36 1603
10738 0.48473101896114085 0.89791957754012641 0.98984792101519725 10 15 16 0.58284802048637641 1 1444 99 1983 102 2560 101 1435 138 2526 137 1209 139 1030 179 1003 103 626 181 1066 104 1745 53 630 194 1522
21011 1.0490514622418041 1.2021649375158665 -1.3178299082139178 1 2 0 0.90422986965000351 119 1886 161 1893 186 2015
10737 0.46764526778334925 0.85814684422654253 0.99054295356407474 207 213 213 0.48955227940664559 49 2055 102 2559 101 1917 138 2524 99 2357 137 1703 139 1439 103 1730 181 1450 104 2246 53 1376 51 1911
21010 0.43668562967355501 0.90020470314541445 0.064141778966650326 5 5 3 0.37509203613344666 120 2972 186 1995
31489 3.96392199779807 -8.0098974841138553 18.435807220398285 54 52 40 0.9921235275319461 90 789 37 318 38 931
10736 1.1529908945285949 0.71493762112473669 1.4462168849067083 6 11 7 0.27028936901174672 49 1481 102 2556
21009 0.41521320736458595 0.54939067141134257 0.43051676780817977 124 126 76 2.3463794756102745 162 3348 186 1987 123 2146
10735 0.40359087384954995 1.2020253100679339 -0.2841560139287706 109 110 105 1.559581027450911 99 652 102 2543 138 2978 104 1699
31487 1.7399199476253622 -8.3605214439653857 21.634556347612804 89 99 64 2.3618809935965204 89 128 130 1280 37 310
10734 0.30831423582125733 1.16347371500485 -0.27579050024069229 7 13 9 1.1520847682655935 99 1442 138 2512 102 2541 181 1015 55 1470 106 967
21007 -2.3626978805780112 2.1424969370083522 1.9242877457816552 75 88 34 0.40054150071457656 161 1664 186 1907 163 1813
31486 -9.0300393190541222 -8.066278713594679 33.363816014619808 57 64 45 0.98026186846198582 38 966 130 507 37 293 35 368
10733 0.45712849039133985 1.0230296616083245 0.1319600814620035 136 135 130 2.33436247559625 99 1963 102 2540 101 2297 57 1955 106 2273 108 2048
21006 -2.3626978805780112 2.1424969370083522 1.9242877457816552 75 88 34 0.40054150071457656 161 1665 186 1906 163 1812
31485 -9.1649650172079706 -8.1725258117245208 33.855584527262344 57 64 45 1.0677788370693635 38 965 89 171 37 292 130 506 35 367
10732 0.46719442151454715 1.3675111758425693 -1.2551463293394098 115 127 98 0.40779702721664446 49 2020 102 2531 51 1295 101 1892 138 2948
21005 -1.9747437785849502 2.9309198667447269 -0.84487757219009207 83 97 47 0.23753612360145526 161 1675 186 1890 187 1921
31483 6.1718148452587407 -6.7418113032059379 12.878744998680736 91 99 75 1.49277481099877 132 1354 37 266 91 965 38 1680
10730 0.38500732245680624 1.1625986417941443 -0.56812689056884336 8 10 9 0.98015139219173797 49 1438 102 2526 138 2945 99 2336
21003 1.6077547726087142 1.7621140435715847 -1.1340914184542918 85 78 68 0.21192188223567279 161 1440 186 1785 121 2130 163 2262
10729 0.41297855600689221 0.94210784547821946 0.50390806045925085 6 8 3 0.18838646836482223 49 2035 51 2374
21002 1.2392533362532641 0.94054568101282721 -0.091001554140680257 145 141 134 0.20495284324881646 119 1391 186 1751 187 1234
31481 5.8784848399002598 -7.7449719016551084 14.729059409878161 17 24 11 1.3195969424976028 90 737 130 410 37 263 36 801
10728 0.29423363680462244 1.118709487211069 -0.74329963360991591 66 70 71 0.28504471951579841 99 1379 102 2512 101 1870 138 2472 97 1380 136 1984
21001 1.1709048916188998 1.7982471954993544 -0.91745738150461864 24 23 10 0.34415362684621331 161 1361 186 1730 187 1799 163 1576
31480 5.3718328724998994 -6.8383537208242622 13.402555036946447 29 33 19 0.89753582160235079 35 1328 39 1115 128 568 174 561 37 262 91 962 96 2270 132 1350 176 1598 94 2012 36 1605
10727 0.36057062589305078 1.0617524950900232 -0.52802276961286598 149 147 140 0.12860572563884723 99 1936 102 2510 138 2467
10726 0.45507669690397456 0.70925416673409258 0.68344224304870438 146 146 144 0.28106325889808204 99 1362 102 2497 138 1853
20999 0.50793145135994278 0.82262518720267974 0.019895328027713041 0 0 0 0.024778444284575249 159 1328 160 2206
31477 -3.0453416907018331 -21.852749041796503 58.80816423177388 152 156 148 0.9233899222673001 130 391 170 310 172 466 37 239 33 252 36 1592
10724 0.51720579667351141 0.55434003840361057 0.93504845243434809 123 123 121 0.94276582615580362 99 1357 102 2476 101 1353 138 2434 97 492
20997 0.53974415082290617 0.91569622944100071 -0.050712197164294856 117 113 78 0.46121056652208203 159 1359 186 1635
31476 -5.7197663251266553 -9.1634533030357943 30.488853645115498 48 60 30 0.52726442599930579 38 1662 89 1029 37 230 90 1681
10723 0.50112718102543041 0.56049383762149307 0.92922992470940002 123 123 121 0.7774975818851021 99 1356 102 2475 138 2433 97 491 104 2170
20996 0.93318887552175822 1.178584027213482 -1.3958256453511608 8 12 11 0.83365218893713189 75 1730 186 1620 76 3091
31475 -13.300440061940396 -8.5866940634518407 35.186582185203918 41 44 20 1.9397839271313351 38 849 89 100 37 215 35 220 36 832
10722 0.52164395484073955 0.52826884727080248 1.0244094636420109 161 161 161 0.27245915671876714 99 1922 102 2472 138 2428 104 2165
20995 -0.18386956944616406 2.0133677513080097 -1.3333386374546967 121 122 74 0.505508130704167 119 1235 186 1542
31474 -18.674366509810405 -10.211636639573431 45.172430395186481 20 20 8 1.3659637957614299 89 97 168 632 37 211 36 830
10721 0.51308473628126761 0.52919640178304761 1.0212045208396947 161 161 161 0.18998995464648641 99 1921 102 2471 138 2427
31472 6.1659505636307186 -8.2379839802309398 14.719187702312608 48 52 33 1.405624056138354 89 74 90 734 130 412 37 191 92 633 38 886
10719 0.32864921224679494 0.83570564553173687 -0.37976106974347901 107 112 116 0.1666051693418362 99 1886 102 2467 138 2877
20992 1.4587123852322197 1.098081714228671 0.8442359096069606 31 39 16 0.14904917755436586 159 851 186 1423 163 817
31471 4.0436001637819325 -8.8497057254093807 17.957512605056724 67 62 51 0.77529223412541626 89 72 37 190 93 3 132 415
10718 0.39295575659290366 0.65413786110578453 0.14822797383174596 126 126 121 0.64267503554880701 99 1879 102 2461 138 2409 97 474 136 1894 93 1184
20991 1.5728817601677181 1.2353600713949562 0.70574732530366358 58 55 45 0.40058429687194969 185 859 186 1420 187 1352
10715 0.51067811449544409 0.35576581772683857 0.81067351981119851 201 206 202 0.82525111783825933 47 2029 102 2442 101 1297 138 1792 140 2388 142 1796
20988 1.6269960990844341 1.3717303506947143 0.19939487121854257 107 97 86 0.18044001438983667 119 855 186 1401 187 1376 188 1422
10712 4.5614628435307552 0.50244083988678878 -3.3568082892673616 14 20 10 0.31124769850819411 49 1928 102 2407 50 2241 101 1775 140 2310
20985 1.6695548430409994 1.5438352780020936 -0.43033973568573614 92 82 70 0.19620501082277086 161 760 185 659 186 1379
10707 0.34587709356173885 0.15949554054475029 0.50400419357815018 252 253 254 0.15685276596636952 99 1814 102 2370 51 1711 52 1619
20980 1.4050369278979504 1.544647089179878 -0.1888266787012641 55 47 34 0.34548257037585683 161 1441 186 1341 79 1781 27 2544
31457 -4.2032704538155592 -6.9511460114307697 29.513409451636242 36 42 28 0.44043216508507316 89 1626 90 2277 130 1830 33 1884 85 2011 126 2753 86 2336 168 3059 170 1908 172 2177 129 1377 37 1779 38 2504
10704 8.561912526458622 -3.21927373481111 3.9333026717711372 39 49 24 0.15064779419701105 3 1494 49 1861 50 2231 102 2346 140 2239 52 2215
20977 1.3562959346903236 1.659876810942382 -0.52373347757208066 53 50 37 0.52172407782794594 161 1419 186 1322 121 1516 163 871 77 1375 79 751 123 888 188 889 29 1207 83 886 167 875
31455 3.4222336044391151 -11.373915197683282 17.241808092614608 244 245 241 1.7477516722284459 90 3017 130 2374 170 2633 172 2793 128 2662 174 2641 39 2397 38 2828 40 2776 90 3124 130 2648 170 2712 42 2468 92 2827 39 2529 94 2954 132 2794 128 2769 38 2939 36 2844
10702 7.3477856292025843 -2.1302324560660888 0.27210631737511159 57 65 44 0.11532591949819992 49 1843 99 2176 102 2328
20975 1.2515980234607669 1.5706337709825551 -0.46285932872200403 43 42 21 0.23095973414946336 161 655 186 1300 187 1284
31452 -1.84293023013983 -9.8034565296183889 30.035698830106291 70 79 43 1.207632922063427 38 2696 89 2373 130 2412 172 3014 174 2767 85 2240 33 2288 86 3023 88 2409 34 2486 39 2278 40 2654 170 2271 128 2266 35 2385 37 2327 91 2095
10699 7.3440618226284053 -2.6399047844779253 0.53144408434761625 13 16 9 0.3113201513107306 49 1823 102 2306 51 2164
31451 6.1694401055198247 -3.4520014357603976 5.5489589918220004 14 18 9 0.58095447341289885 47 2397 100 2654 1 2264 97 2451 178 2782 2 2738 136 2802 129 1998 170 2331 37 2088 93 2121
10698 7.1500577480513625 -2.6904405073051372 0.59280776376166178 17 25 14 0.47861551728413365 99 1747 102 2305 51 1673 97 1666 178 1720 104 1990 136 2326 134 2287 95 1572 93 1061
20971 1.1856990276891968 1.1011313769353694 -0.54398233788052286 8 10 6 0.090093149059551028 161 577 186 1227 187 1231
31450 -7.3659251505672856 -6.4253308776726286 31.277924364476625 54 62 42 0.86277665989165997 126 2750 168 3046 32 2860 85 2008 130 2195 170 2302 172 2599 38 2500 86 2750 90 2275 89 1989 35 2011 128 1883 129 1715 37 2094
10697 7.2399489224885345 -2.7829308555938268 1.4449597170606709 92 97 77 0.13745867936124406 99 1756 102 2304 138 2278
20970 0.41228475388460289 1.018871952887072 -0.2949125526073722 119 118 98 2.6344834351016235 161 1156 186 1118
31448 -4.34187770095952 -7.7976465954052481 29.690504839111043 51 60 41 0.46796035094713634 38 2503 89 1992 90 2627 130 2180 87 1822 126 2754 86 2316 33 2637 170 2536 172 2603 128 1870 37 2071
31446 -6.1447811940413768 -6.9348423481127286 30.864508131910789 60 70 47 0.52620995336561438 126 2314 168 2549 31 1597 32 2838 85 991 86 2331 170 1906 172 2173 128 1378 38 2183 89 1623 90 2263 130 1829 129 1718 37 1777
10693 8.5136185881967208 -4.3745700171183008 2.7720349513223899 36 42 28 0.26136426897255272 47 1364 102 2257 138 1573 99 1719 140 2159 178 1668 96 1721 134 1616 43 1233
20966 0.1698548971490772 0.14127210899350087 0.56994000833391523 249 251 250 0.29484507375176822 161 190 186 1007 187 978
31445 6.0244005017711508 -2.5789053606674117 5.8355487731149633 3 6 2 1.0856981975434949 129 2129 171 2171 172 3130 174 2708 131 2069 99 2941 100 3421 47 3108 1 2956 97 2764 178 3330 2 3513 136 3403 135 2345 176 3049 133 2139 175 1968
10692 7.219082444851578 -3.3070632020136714 0.24521636337324554 25 32 14 0.14645234921043715 49 1136 50 1612 102 2244 138 1547
31444 6.081986743697045 -2.6086533408480999 5.7167155026497829 3 7 1 0.2919803170862893 171 902 172 1714 129 243 174 760 131 65 99 1210 100 1053 1 492 97 342 178 1861 37 544 135 914 176 929 175 812 93 326
10691 0.44778892824686783 1.2470241539090268 0.11098882307832324 30 34 36 1.0257129030569967 49 742 102 2042 51 1395 3 822 101 694 137 523 139 1038 141 1131 103 1272 181 1080 143 1233 105 1282 104 983 53 1976 193 501
20964 1.6180453626366995 1.3636045212468513 0.23591258461561065 72 62 53 0.16571202973763138 185 760 186 828 121 947 187 1377
31443 4.171981598316874 -3.1566925555614809 10.350150186322468 108 108 107 2.6013319670761645 89 400 130 683 95 1170 94 975 131 1686
10690 0.54992998504238855 1.2028543886808474 0.33390195564473119 180 185 186 0.20525921649253023 49 1511 102 2039 51 1393 101 689 99 1495 137 517 141 483
20963 1.5505594355441568 1.3482886827081932 0.37521286226260864 131 121 91 0.11762718025590597 119 856 186 797 187 827
31442 -8.7429004236756178 -6.5383650364856676 32.48193556623081 4 7 3 0.96215601436113807 38 2879 89 2379 90 3067 130 2586 126 3294 168 3565 31 3176 85 2448 170 2672 172 2856 128 2548 35 2694 37 2530
10689 0.60944081348239065 1.1530742024088316 0.4313993308405944 200 204 204 0.52059506398933253 49 740 102 2038 51 648 97 677 137 516 139 448 179 371 141 1126 103 1301 181 1042 143 1227 105 1316 104 1748 145 1288 106 1822 55 1526
20962 1.4880814186600906 1.3755611323739994 0.30242803010969826 186 187 172 0.15601257020117679 161 765 186 764 121 852 163 882
31441 4.3498404965898017 -11.859516427326442 18.364601425544986 195 195 183 1.4572545010119906 39 2238 130 1697 40 2618 92 2519 42 2011 132 1792 128 2666 94 2337 174 2209 170 2195 172 2030 38 2658 176 2507 41 2112 36 2749
10688 1.9228054257686378 0.55968901049491881 2.2583318961644494 122 119 81 0.20293933576293358 49 766 102 1997 138 1963 99 633 137 435
20961 1.5252109670732557 1.4306376916161971 0.10848520386879668 184 181 174 0.11677532583233603 75 776 186 756 121 905 187 824
31440 10.826947284433816 -20.092667996689666 13.024225615976551 109 113 94 0.6223195107652727 42 2446 98 3355 46 3411 94 2937 96 3233 44 3222
10687 0.37459982913013024 1.3829482011435172 -0.83905803966718151 34 37 40 0.74948474642078589 99 1994 102 1993 138 1993 137 2059
20960 1.5251384502135525 1.43102426919466 0.10856065183842437 184 181 174 0.10919208113604062 75 775 186 755 121 906 187 825 79 758
31439 10.813335292311873 -20.510123141269887 12.733212515284958 108 113 93 0.65049595112219727 42 2167 98 3245 94 2761 96 3081 44 3074
10686 0.42234435251641483 1.2825616775763624 -0.63854121368480965 3 7 6 0.88268671299721624 99 1446 102 1992 138 1955 97 649
20959 1.8545777862982693 1.637417995354981 -1.1036518233719703 206 199 180 0.067007482673270322 161 787 186 737 77 1435
31438 7.1287745996242657 -20.020917074773966 14.297312220644848 78 85 75 0.81673846395837946 42 2157 98 3093 94 2520 96 3072 40 2733 92 2639 44 2817
10685 0.84227478893244434 1.3103042006890544 -0.69959929104102658 6 8 5 1.8523722207099989 99 1472 102 1991 101 630
20958 1.4295011189128599 1.410103894914877 0.17840918018342725 35 39 21 0.22425109766069326 161 724 186 727 121 2083 163 1587 77 1796 187 1821
31437 15.853455882675076 -14.389385906915246 5.6365289242858436 240 242 234 0.47761690748084856 42 1962 98 2084 46 2235 2 2598 45 2335 47 2260 48 2327 96 2565 100 2518 136 2637 134 2492 44 2601
10684 0.40908578122354172 1.2146607654817043 -0.447562523215774 9 12 7 1.1087822288074516 99 610 102 1989 97 646
20957 1.4931159003051833 1.7080766893151593 -0.77467938437693162 223 222 217 0.12584379115168529 161 706 186 689 187 1368
31436 15.096751306785558 -14.732440498794096 5.1730224123869943 82 85 55 0.43710284498216823 42 1623 98 2056 96 2082 45 1828 48 1856 136 2053 178 2088 46 1589 134 2472 44 2120
10683 0.38062018496931566 1.1246325714163483 -0.1723875396724609 5 10 4 1.8405546605099776 99 603 102 1986 97 602 104 1677 55 1468
20956 1.4926830462555392 1.7099033843322884 -0.77400784187499871 223 222 217 0.15360834051357367 161 705 186 688 121 882 163 912 77 817 187 1367 79 830 123 1564 165 1049 81 1605 29 2047 83 1582
31435 14.725655361668771 -15.10667576487821 4.6519827357069037 243 246 241 0.63641442954834737 42 1602 98 1391 46 1536 96 1386 2 1348 48 1242 100 1403 136 2020 178 2047 50 1329 134 1969 176 1939 44 1442
10682 0.42670217104925817 0.88187354072934576 0.55421289129230356 109 119 130 0.15936238042519857 99 597 102 1981 138 1172
20955 1.6557233655587 1.7392018101328175 -1.117268729925267 84 73 64 0.25903432925812209 161 703 186 682 121 1594 163 994 79 1835
31434 10.310827772328025 -18.835516128441796 11.859578842757921 251 253 250 1.0886705495622435 42 1101 98 2820 94 1193 96 2483 46 2876 44 2842
10681 0.39200724971009254 1.2364088554169321 -0.82418223753940345 38 39 43 1.5231409125154876 47 1596 102 1968 138 1934
20954 1.5155626179251906 1.7888560322784426 -1.057545702515621 66 58 46 0.20712216896238578 161 704 186 656 121 1573 163 1668 187 1868 79 1824
31433 14.650523177163841 -15.638553675186765 4.745563384773698 233 235 226 0.98285265836591551 42 346 98 300 96 314 136 91 134 35
10680 0.35077710928031719 1.1335877012702402 -0.56304195303587856 159 157 151 0.22916501692341998 99 1415 102 1964 138 1927
20953 1.4379778967385943 1.8504097374867869 -1.3071155120870024 117 104 75 0.28628172131645857 161 679 186 608 121 873 77 1396 187 1363
31431 9.9709208634997104 -20.228025601593494 10.992167604781359 0 0 0 0.53233471977600788 42 204 98 90 92 32
10678 0.36714187872982063 1.0163476875263162 -0.39147938916495678 150 149 145 0.13781895879033737 99 1934 102 1939 138 2465
20951 1.4779187551019539 1.9087271035867099 -1.4963670703126246 72 64 46 0.25680229465452664 119 695 186 601 121 1569 163 1663 187 1393
10676 0.3774051409755238 0.91937067300214748 -0.072311488476069774 119 118 110 1.6347535820503065 49 1394 104 1592
20949 -2.6326297943707679 2.8427425928382637 0.028983231421398119 61 71 18 0.26291484537575865 185 215 186 51 187 46
10675 0.54690175862162571 0.5588084225371247 1.126341096267254 120 120 118 1.569856213512214 49 1407 102 1908 104 1664 55 1434
20948 -3.7418561312321108 3.6653627029199765 -1.3048523465338329 67 82 35 0.26552106130125874 155 1771 156 2894 185 1818 157 1815 158 2017
10674 1.4824097325240924 0.5955287955081876 0.46246005563974607 3 6 9 2.6485865713475976 49 1421 102 1885
