# 3D point list with one line of data per point:
#   POINT3D_ID, X, Y, Z, R, G, B, ERROR, TRACK[] as (IMAGE_ID, POINT2D_IDX)
# Number of points: 368, mean track length: 4.7517835583360775
18519 3.7731205111141164 -3.9689134464111113 -7.9277267611500513 149 142 116 1.1548928731821753 130 3491 46 3752 132 3722 10 3936 48 3918 50 4134 138 3232 54 3089 16 3233 14 3391 12 4102 134 3731 94 4450 52 3182
18518 3.5503081555964049 -3.7750073181333352 -7.8148921013210693 143 136 116 0.41467720497012434 130 1378 10 2389 50 497 52 407 14 1394 94 1737
18516 2.2254691378244265 -4.5523500405888182 -11.390778514106255 60 60 32 0.98043239876471966 14 3616 50 4270
18515 0.53887844479425606 0.20229948525125974 0.65161408685680033 28 24 13 1.9491346340381266 48 4042 50 4259 11 3656
18514 3.310238239033227 -2.7900119476366383 -11.85073179626467 81 85 35 1.8970987667887969 132 3858 50 4257 92 4198 11 3642 12 4220
18513 3.4629464748738403 -2.1288108021377288 -6.3889529778581604 101 99 60 0.57371464107296133 52 3393 50 4255
18512 2.1030451754801995 -6.5130394343575801 -9.0097728864428763 152 152 114 0.70193844308474118 52 3355 50 4248 12 4213
18511 5.1187849535541581 -5.300638075618596 -7.1399770701410175 148 143 99 2.1186427497120222 10 3976 132 3835 50 4185
18509 8.2135120419738179 -6.1524142952608738 -3.4742764812473688 109 107 69 0.38678580351188074 48 3829 50 4112 12 4083
18508 4.0105917605190138 -6.0071867427101564 -8.0736789628189793 212 205 186 0.76685650681199879 48 3904 50 4016 12 4089
18507 2.1096540344340484 -5.9113795921311647 -8.5861503921899711 151 145 107 1.0427480796979844 52 2995 50 4010 12 3969
18506 0.012325683117621139 0.30959591318610735 1.7849528799735386 235 168 89 0.69287276705976575 54 2910 50 3967 11 3348
18505 3.0750962695733439 -2.6719501099885812 -8.8499415023249473 114 110 73 0.54625596360823125 10 3790 50 3899 9 3654 11 3443
18504 4.7131362466937512 -3.6647285504050884 -8.0950465223550232 155 150 120 0.35196065889820644 136 3274 50 3633 12 3571 134 3507
18502 5.7217211652515756 -3.3726304804299714 -8.3328973399417592 253 254 255 0.1729738297266013 52 2539 50 3294 134 2945 94 3512 92 3159
18500 7.4968966622586626 -5.6003978321657497 -2.160498101916684 124 123 84 0.45376915210120367 10 2315 48 2385 50 3146
18499 1.4410558977212797 -0.91398578932359709 -8.3067115451439744 38 40 14 0.40811480659411209 48 3167 50 2896 49 2060 92 3242 47 2588 91 2983
18498 5.5909354670881397 -3.4466514027048802 -7.6468343659783988 156 149 130 0.32512637719674869 48 2516 50 2776 12 2633
18497 4.4947681802719535 -3.7001531661496263 -7.2015346533106275 219 216 197 0.38817771356510911 52 2031 50 2722 12 2576 48 2462
18495 0.23430176107646092 -1.6481516124455291 -7.7724196596120416 131 133 84 0.1487136335794938 52 617 50 2057 94 1892 11 1380 92 2559
18494 4.4446591913516738 -1.6199503762181471 -2.3262067523179928 45 42 23 0.27525262951529811 52 2121 50 2035 49 1996
18493 -0.19678342984194361 -0.80211557083104579 -7.5540131167570221 109 113 78 0.29494645405313152 136 710 50 873 134 820 94 600 49 237 92 1708 91 1418
18492 1.5567896413901356 -1.18964376677437 -8.3835546486040169 44 48 20 0.15575886011789652 132 720 50 862 92 317
18491 1.5567896413901356 -1.18964376677437 -8.3835546486040169 44 48 20 0.15575886011789652 132 721 50 861 92 318
18490 0.10279802353927231 -1.7692456713928875 -8.0731709709711126 45 47 18 0.13901792004674465 14 505 50 749 13 28 12 730 11 1381 49 50 92 1609
18489 6.3326298763822386 -3.2673633825367694 -8.6769161904783676 126 120 94 0.15651071185941942 48 612 50 649 94 1805
18488 6.3190806814815232 -3.2627283091044337 -8.660314680200198 126 120 94 0.18114888953753505 48 611 50 648 94 1804 11 1341
18487 3.8340087739151301 -3.7717490887643335 -8.6345854604779824 254 255 250 0.28199357643801842 136 327 50 546 134 423 94 145
18486 4.5927228079962532 -3.6737586477213018 -8.5167599722965015 142 139 114 0.21205150490460781 132 468 50 545 134 478 92 33
18484 4.2513846806198181 -3.7791140554557199 -8.066606975348293 249 248 241 0.21977914127934786 52 403 132 409 50 493 134 421
18483 3.8140273341855075 -4.9879537717343085 -9.4071880614875507 255 254 243 0.3430106496511594 10 1490 52 296 132 222 50 355 12 345
18482 4.0443155133982387 -4.3652255664265649 -4.6344374064203313 57 55 31 0.15494407299211618 10 1447 48 240 50 234
18481 5.0575148425278149 -3.7126815062052367 -8.1231611013301972 98 93 67 0.73995901362418515 130 2676 46 2905 90 3276 9 2717 14 3025 48 3072 50 3268 12 3192
18480 13.514749118005358 -1.0885240775459788 -1.9347421641439182 22 22 8 0.23725619028150124 46 976 89 293 9 1592 132 997 48 1016 162 171
18479 -0.77863509644674123 0.25878393766198504 0.32779970209899939 78 75 52 0.17392442301452929 10 2627 48 2038 9 2355 46 1943 8 1857 7 1641 45 1798 129 2955 90 2106 89 1761
18478 2.6542126036171685 -0.1629392800976821 -5.5789188747968712 116 116 67 0.36605131817826009 10 2633 48 2676 9 2334 46 2586 8 2601 7 2355 45 2513 90 2823 89 2491
18476 -1.3251373923608056 0.56554951500027206 1.2161136396326466 32 23 14 1.521001171770741 10 3914 48 3800 9 3698 47 3358 91 3868 92 4123
18475 -1.1989464286350136 0.57157364464139826 1.6471860321323071 10 9 4 0.53277576778741087 10 3845 9 3617 47 3267 92 3973 91 3534
18474 -1.3133415293924227 0.54325512037808776 1.0962511210359953 34 28 16 0.99492965622818996 10 3835 48 3801 9 3608 47 3256 92 3945 91 3811
18473 18.333125134014679 -3.10032095004554 -4.088633245527121 24 22 12 1.7269886559262422 10 3907 48 3875 9 3573 47 3383
18472 2.3281810802081755 -0.8861966208601163 -8.5933231327564155 106 108 77 0.71558126456377535 132 3651 9 3572 92 4017 47 3321 91 3843
18471 0.57034559516085237 -0.30885130338172029 0.71709201854901705 25 26 12 1.6004100340106813 132 3749 9 3565 47 3393
18470 -1.588966969462291 0.62277496449561065 1.0084988449702157 6 6 2 0.1734565288684882 10 3726 48 3629 9 3499
18469 14.6022863512749 -1.5797292761676511 -1.2239618532304344 119 116 71 0.46535574504508898 10 3464 48 3763 9 3455
18468 6.9595491746627491 -2.6017871973882336 -6.3071338652657909 39 33 17 0.46318818864715255 10 3654 48 3723 9 3413
18467 8.367559071373595 -2.8969295786922555 -1.4388225660704825 158 156 133 0.35384569941710059 10 3393 46 3293 9 3398
18466 -1.2133430279337931 0.60433795586652728 1.683378483676313 17 14 7 0.63800718214099295 10 3740 9 3319 47 2869
18465 -1.4725486351107118 0.61681014594497108 1.2967955618333511 11 10 5 0.22639419171066041 10 3560 48 2911 9 3315
18464 -1.5603794600600405 0.59514734828308569 1.0025378596843861 21 18 10 0.37258300094331176 48 3332 9 3288 47 2835 92 3778
18462 -1.3477582988399106 0.53911435234237237 0.97174889024952393 52 38 29 0.36040068276741805 10 3510 48 3312 9 3275
18461 -1.2887792446971222 0.53187821027569682 1.0158323442091588 199 122 50 0.33456022533579238 10 3179 48 3310 9 3273
18460 -0.76283003566544749 0.32186756654427645 0.57802180996837715 77 75 16 0.52595049650017578 48 3263 9 3229 47 2702
18459 -0.81262363310450247 0.29159024623903407 0.36351811741751 125 114 94 0.15669876608245631 10 3460 48 3586 9 3224
18458 -0.73704953471492451 0.25366124173161064 0.37643457925064766 28 27 17 0.47453332499757844 10 3459 48 3247 9 3223 47 2688 92 2820 91 2581
18457 0.6086393799717249 -0.048560046788463193 0.68270757349588274 43 34 19 0.32062121365562102 10 3101 9 3202 47 2663
18456 -1.6488775731309562 0.67713164463644038 1.0651609526752135 8 7 3 0.30094649981689314 48 2318 9 3040 92 1350 47 1864
18455 -1.6122752145584462 0.64541129194664981 1.1337727590492908 10 8 3 0.1960376371694815 10 3246 48 2280 9 3023
18454 -1.4775171241905456 0.58697382855177616 1.2331798982947626 92 81 74 0.25289284062609213 10 3548 48 2908 9 2999
18453 -1.2655652125962289 0.50914105732649428 1.0044712764943606 52 19 4 0.49668085865025896 10 2703 48 2833 9 2960 47 2772 92 3439 91 3210
18452 0.71568960004018511 -0.34734613408728876 0.71047736170906051 225 156 53 0.080545760581719347 89 2473 9 2795 47 2116 91 2483
18451 0.72071668326856697 -0.40242471954098202 0.72257830144571522 254 210 121 0.10081227642761093 89 3043 9 2780 131 3441 47 2608
18450 3.4168977767634843 -2.4477259614255407 -6.7361186491178788 116 110 74 0.30889703365657345 10 3012 48 2522 9 2736
18449 -1.2489194556999454 0.50042550372024985 1.0407538032125701 238 171 99 0.19294386088483387 10 2697 48 2191 9 2467 47 1705 92 2959 91 2758 131 3108
18448 16.048605982525167 -2.1226062212478842 -4.5116214166132389 22 21 9 0.38071013664423659 10 2643 48 1990 9 2325 47 2112
18445 0.023849816967170201 -0.18855524732393397 0.20935020772237117 114 68 52 0.21283698570612078 10 1827 48 842 9 2262 50 900 49 1372 91 1617 132 2653
18444 4.6637326711092442 -2.5821847690358997 -8.4482850913407006 77 76 48 0.22646893462596185 8 2432 10 1729 9 2180
18443 4.8685035053555543 -3.6773455345633645 -7.9833072787221599 79 77 54 0.5144913972720091 132 1654 9 2093 50 1933 94 195 52 401
18442 -1.6462968295918048 0.60943085379375572 0.89457482342680072 26 22 19 0.22943031979118297 10 2743 48 2247 9 1868
18441 -1.3796255886043582 0.5136500489609358 0.91035032033481111 254 164 86 0.10513885967197381 10 2052 48 1222 9 1767 92 1096 47 733 91 833 131 2238
18440 11.268627347695872 -0.98219293943331853 -2.9133668496550751 30 31 12 0.2732248378724505 48 1024 9 1597 47 1380 92 1838 91 1571 132 2622
18439 0.10719413656018212 0.069186486899845218 0.41967761378952634 113 58 19 0.25675801965771861 10 1895 48 992 9 1572 47 1457 91 1714
18438 16.886960654182232 -3.3630545066486541 -2.7812364407386823 57 55 34 0.25729407024349632 89 78 132 1857 9 1489 47 1238
18437 0.076791594381465017 -0.21656380859250618 0.32143415568124173 127 81 58 0.26190505455302188 45 1650 9 1474 47 253
18436 5.4632549125963186 -2.4095676734767406 -9.7937985075462617 83 78 53 0.16565140930104905 10 1797 132 1779 9 1454
18435 4.4875697771438681 -2.5045647888214582 -9.3876894356539644 93 83 56 0.20653783072653087 10 668 90 1757 9 1428
18434 33.019735261177239 -9.3886625236976045 -5.7397185358255101 84 76 53 0.1253303831500425 10 685 46 624 48 1846 9 1392
18433 2.6828648648800106 -2.2417397102053647 -9.6439673361119169 55 56 39 0.23224397848813519 10 1732 48 565 9 1390
18432 2.8992991663588095 -2.4429412304951637 -10.318019927910187 253 255 245 0.13122485055275876 10 1733 48 564 9 1388
18431 5.1298907491650532 -3.5090104669279492 -8.1130109322250394 105 96 72 0.74324614578546588 132 1655 9 1308 12 1840
18429 -0.87496931713934734 0.56802381713061967 1.8962388896983104 106 100 88 0.003465823328714316 10 1262 9 951
18428 -0.45566958929016044 0.38658879655670514 1.6995441090598415 209 161 126 0.17676442560048614 10 1036 46 1063 9 686
18427 -0.019074701611932338 0.14835779708413371 0.43776593742452236 87 36 15 0.3089306694348995 48 996 9 553 92 712 47 400 131 399
18426 13.272530170898916 -1.2692366969212046 -1.4360902370247521 106 105 61 0.098344093717299311 48 1015 9 532 47 232
18425 2.553457535849788 -0.14000785510454278 -5.6433293144207264 130 130 76 0.22815240393590708 90 1951 9 518 47 266
18424 14.366356163549257 -1.7811356113883656 -2.6916828065661162 119 118 67 0.070397807828643855 48 975 9 485 47 196
18423 -0.5934927775433313 0.1018402318148645 0.57955719626232005 20 19 3 0.15853445371363714 10 808 9 453 47 405 132 1240 131 450
18422 15.936020766255499 -2.5171366800532922 -4.0741283913568278 106 107 63 0.16483394841819962 10 883 48 921 9 435
18421 17.683359911360672 -3.2029857393640606 -1.996287218994323 36 38 16 0.053310490170230949 10 827 89 75 9 394
18420 30.250687739260147 -6.6484298374839943 -4.8606392456353449 49 48 22 0.151791803358925 10 782 132 1816 9 344 48 819
18419 0.057838196967251371 -0.28105251001050663 0.29145910660113211 102 63 20 0.12090624941926727 89 310 9 328 131 270
18418 3.5859635561543661 -3.3771918059887631 -9.4915216225883938 123 121 88 0.18501201705429851 90 129 132 469 9 128
18417 6.0815342983318921 -3.0799951329895903 -2.0642597468656527 68 67 45 0.83107368971876994 10 444 45 26 9 26
18416 -0.36958476452801003 -0.05073019777185124 0.20201016435964919 157 156 112 0.32450546744004838 98 567 97 362 142 1382 102 1759 101 1661 141 1797 166 2841 57 398 58 1365 100 521 56 1379 55 457 99 417 139 256 138 845 137 376 165 1857 135 301 164 1933 136 1001 15 244
18415 -0.57270711788326167 0.032672728504780792 0.47496712453179696 116 106 71 0.54815862499523571 60 604 59 1776 102 1763 19 1454 20 1370 101 1664 141 1825 166 2854 57 1581 58 1408 140 1552 100 576 165 2693 99 455 139 1730 18 1410 17 1511 56 719 138 878 97 392 137 414 55 503
18414 7.544186263437866 -3.0104239175002454 -13.860315253837996 253 255 254 1.8089242138971355 90 4336 48 4018 9 3751
18413 4.9261892871467392 -3.6839368140781779 -7.5331904002897128 78 77 54 1.357262050432029 136 3660 52 3391 14 3590 48 4014 88 4032 130 3546 46 3799 132 3820 10 3989 50 4232 12 4199
18412 4.1269994643806376 -3.8258157686686052 -8.4320923918124837 138 133 106 0.34269994342825982 130 1431 46 1526 8 2313 90 1584 132 410 10 1602 48 1664 54 281 136 319 14 1418
18410 4.1307859499482049 -3.8253806262799119 -8.4370727094666389 142 137 109 0.28124681212957758 54 282 136 320 14 1419 48 1665 130 1432 46 1527 90 1585 132 411
18409 3.0344159740504533 -3.9442079764321587 -7.5923621230611937 251 253 243 0.11375469610716599 8 1461 10 295 48 294 130 1345 46 1446 132 279
18408 13.449003338843612 -0.8911690214144572 -2.3945601290405505 21 21 13 0.67211489383712497 132 3828 48 4025 47 3465
18406 15.158291465318063 -0.10030792574865209 -1.264947348047889 24 22 9 0.23884360490814494 90 4311 48 3962 89 3862 162 4250
18405 7.8855655561278839 -3.9002341605739641 -3.2738069467071913 110 106 68 0.30853234015839059 10 3884 48 3927 9 3644
18403 1.8849311773420225 -2.8583883071043514 -10.542495612862055 70 71 51 0.6435920741776443 132 3730 48 3923 92 4086
18402 7.9056820486895978 -7.1476759926334141 -3.4146931322184715 254 255 255 0.8481472798268066 10 3858 130 3419 48 3902
18400 7.277316778029622 -2.8657245676607408 -7.021499312952912 236 235 211 1.6076910415787389 8 3776 45 3877 48 3860 46 3709
18399 2.8943642177587008 -2.5457491709392417 -9.5703079788948155 72 72 46 0.67201199784050225 132 3624 48 3855 12 3595 52 2860 134 3308 94 3953 11 3287
18398 2.8310315211940846 -2.3863605699974939 -8.7108954484358296 254 255 253 0.10352287501918904 10 3792 48 3854 9 3557
18395 4.0059750853166101 -4.2375772708362884 -10.229503899238551 254 255 254 0.53126722748904331 10 3777 132 3723 48 3840 50 4032 12 4000 94 4452
18394 3.7974518103337886 -4.2321452210936314 -9.0648175265980093 255 255 254 1.4907634857876397 132 3610 48 3839 50 3871 12 3837 48 3680
18393 3.0211644010602017 -4.8804825602040287 -8.8264319803529077 254 254 249 0.93731480556014368 10 3864 48 3828 50 4128 132 3707
18392 -1.6045273291091471 0.59340107308931833 0.87283288666038805 28 23 18 0.65152052642985236 10 3717 48 3804 9 3610
18391 -1.1162142876932801 0.48590259235840022 1.2300360027143642 242 148 68 0.47071206822955808 10 3710 48 3795 9 3602
18390 1.5286085529998867 -0.043865621632557791 -8.3787186284807049 60 63 35 0.83124202357581789 132 3528 48 3751 131 4123
18389 2.8176611979297448 -1.604040562879373 -9.8944602297094839 66 64 34 0.21238890690980416 132 3283 48 3724 92 3628 47 3178
18388 2.7696839001926596 -2.5624852735030763 -10.257913415721854 59 59 31 0.28496445415218946 10 3629 48 3708 9 3407 92 3839
18386 -1.7262516293017489 0.68061868645206158 0.93770095565264744 7 6 1 0.30199153476880647 10 3736 48 3642 9 3618
18385 15.915941289598063 -1.8461662655275524 -2.7185326261988738 123 124 72 0.43751211213133062 10 3467 48 3572 9 3211
18384 17.757783749493157 -4.1716725567993915 -3.2618732789010969 142 140 92 0.51373518573547294 10 3433 48 3530 9 3180
18383 32.607139323065425 -10.324200042797008 -4.3962587911394229 126 121 89 0.26331780917665737 10 3390 90 3756 48 3488 45 2950
18382 2.6508218693764243 -1.8899473757015604 -9.209750401306982 86 87 65 0.18840182580665368 10 3405 48 3487 9 3168
18381 4.368824955377411 -3.7672892668677465 -6.8978418734341993 106 104 66 0.81456157840866483 132 2863 48 3446 50 3250 12 3564
18380 3.4383156373464034 -5.3796696197438516 -9.5030706588704597 254 255 255 0.32446567664501125 10 3310 132 3430 48 3405 50 3582 134 3240
18379 3.651309154035173 -5.1222895826744814 -9.275189361770833 98 91 61 0.31924276693716575 14 2987 48 3404 50 3220 12 3535 134 2850 138 2841
18378 2.6135116249297181 -5.7433943990657266 -8.8030576701519028 147 149 100 0.46776859721970926 132 3156 48 3376 12 3074 134 2792
18377 -1.5595274166410702 0.59468263702003132 1.0007158622056758 21 17 6 0.29271875261605218 10 3531 48 3333 9 3289
18376 -1.3354135859232124 0.51782197167879651 0.95622638387792924 234 142 72 0.13401756953020272 10 3509 48 3311 9 3274 47 2774
18375 12.963357026800145 -0.41559228354068861 -2.572787830674427 22 23 7 1.3452877910866698 132 3062 48 3272 91 3401
18374 12.869196005605387 -0.88381482076468976 -2.5164950310017851 37 34 21 0.043750179899306178 132 3037 48 3256 131 3425
18373 2.3819681691762797 0.03729667899787098 -8.1885870072212104 35 38 17 0.48049729024182247 132 3034 48 3234 9 2877 92 3294 47 2656 131 3406
18372 -0.13458000553867192 0.011183460347551952 0.42639840265029866 231 212 179 0.27003998066543483 10 3091 48 3228 9 2833 47 2668
18370 2.6220820492272621 -1.7624089785576309 -9.3700859083831141 255 255 252 0.18399147690287551 10 3058 48 3142 9 2790
18369 31.53007161286731 -9.3720928426688879 -4.38930364494112 72 66 54 0.50015710906200705 10 3037 46 2422 48 3122 7 2190 8 2443
18368 2.9943718023596633 -2.1328795173998483 -10.38960094722105 236 235 229 0.21421901220205494 10 3406 48 3115 9 3169
18366 6.2540265192204005 -3.3711221490847256 -8.5934908359233084 254 254 254 0.69795108476849321 10 3386 48 3095 50 3293 12 3221 134 2450 11 2656
18364 4.0361328260957396 -3.7974404935983839 -6.6495615613651413 254 255 252 0.36245189388216009 132 2846 48 3040 12 3156
18363 5.9391607169973568 -7.1805490145243978 -8.1193975056735717 254 255 251 0.12216246578364028 10 2857 132 2770 48 2972
18362 -1.4048800757361732 0.62695754542874249 1.3374637839588277 16 16 10 0.50415674002642097 10 3559 48 2945 9 3017 47 2436 91 2868 131 3289
18361 -1.6433000281040684 0.62753932613130092 0.96622820800599851 6 6 3 0.28416846844675886 10 3553 48 2880 9 3307
18360 -1.5107499433192009 0.57202707065238356 0.96335839881867513 29 20 11 0.31539075848125236 10 3203 48 2876 9 2977 47 2379
18359 -1.302422060475156 0.50159679424093295 0.92492206755665318 44 29 10 0.2240414475457492 10 3180 48 2836 9 2933
18358 18.867037187178301 -0.67599656987832346 -1.9941809387067557 22 23 5 0.23661628549807118 90 2874 48 2786 45 2573 89 2542
18357 12.965252057244195 -1.3478920085925323 -1.8390308586201205 81 79 45 0.32206800378077516 45 1710 48 2721 46 1929 9 2342 47 2129 47 2619
18356 16.13782095525773 -2.3368691904731951 -4.0492802633334817 137 140 96 0.11558397098372085 10 1922 48 2685 9 2299
18354 0.086761658251899437 -0.24091714967308991 0.35582599357665884 107 60 42 0.15650875496560179 45 2470 48 2659 92 2709 47 2146
18353 35.520696573064143 -7.3040782654377443 -4.7876384397001415 45 42 27 0.23782581039552381 88 2610 130 1707 48 2644 87 2216 90 2718
18352 35.520696573064093 -7.3040782654377336 -4.787638439700137 45 42 27 0.23782581039553849 88 2609 48 2643 87 2217 90 2719 130 1706
18351 2.5208224881990819 -0.76177810555714409 -10.109329664123642 25 26 11 0.48848429065587573 132 2988 48 2638 9 2320 92 3258 47 2968 91 3001
18350 31.059914103524118 -7.5367596531703613 -4.3889550880168935 135 136 77 0.47859678309691778 46 2478 48 2613 10 2540 9 2223
18349 30.912045778690327 -7.4850547943741441 -4.0641874707306771 137 142 76 0.44359453956923683 10 1807 45 2375 46 1749 48 2611 90 2686 7 1530
18348 2.4610449208030838 -1.2914727774767862 -8.7568224749154417 253 253 253 0.50572118483081463 132 2505 48 2607 92 1701 10 1798 47 2079
18347 2.5761828363203554 -1.5419498905023883 -8.8127907044294371 255 255 253 0.19272027490810273 10 2536 48 2580 9 2247
18346 2.8373545116204473 -1.9128297588507044 -9.6717429804377684 88 84 59 0.21080707061895559 132 2444 48 2555 50 2087 92 2578 47 2023
18345 8.9760701108106726 -3.9136411031519631 -3.3773509678024629 163 156 140 0.42648501085812862 45 2300 48 2504 9 2707
18344 33.121555156562877 -12.22436230854961 -5.972180616510693 240 241 229 0.1660169775591038 130 1523 48 2497 9 2105
18342 4.441309045759489 -3.7054101392086496 -7.8050110834497337 251 250 238 0.59657964217029658 14 2116 132 2339 48 2464 12 2612 94 1731 134 418
18341 3.9081192170865591 -3.795973859948317 -7.1342016129322827 254 255 254 0.148806602209994 14 2634 48 2438 50 2723
18340 7.9273164420506284 -6.3270634005040378 -2.8955095521122307 151 148 116 1.1230698730395716 46 1407 132 2217 48 2386
18339 4.1829812531201478 -5.5237291247502398 -7.5302024406107204 248 248 240 0.31660390430749058 132 1395 48 2373 12 2461
18338 -1.3875415374851119 0.6151109125582287 1.3364225893776738 93 82 76 0.11557316875861531 10 2798 48 2315 9 2573 47 1850
18337 -1.7152063409779916 0.67306177387511013 0.85600742798623375 44 44 37 0.56403407693214447 10 2809 48 2290 9 2586
18336 -1.6262465110289441 0.63817482459384733 1.0563486620440503 92 83 78 0.24564365618271986 10 3247 48 2283 9 3024
18335 -1.6462968295918037 0.60943085379375594 0.89457482342679895 29 24 18 0.2294303197911034 10 2742 48 2248 9 1867
18334 -1.660848453034486 0.61051312797762036 0.97452148593709209 127 117 110 0.22596915797082909 10 2773 48 2246 9 2552 47 1814
18333 16.973478203261028 -0.63542428930871109 -2.110833437227861 77 76 45 0.12156768540401806 132 1065 48 2122 131 1699
18332 16.973478203261028 -0.63542428930871109 -2.110833437227861 77 76 45 0.12156768540401806 132 1066 48 2121 131 1700
18331 0.52600115812831894 0.10131824186701152 0.68259369915200008 34 29 9 0.14163170214061629 10 1927 48 2063 9 1603
18330 0.63270580242823626 0.15105780410406067 0.75898483437149689 35 23 11 0.25460539435696122 10 1957 48 2060 9 1601
18329 0.63270580242823626 0.15105780410406067 0.75898483437149689 35 23 11 0.25460539435696122 10 1958 48 2059 9 1602
18327 -0.12007446467151747 0.08032241938661791 0.43815613494920008 117 78 28 0.19083645819638237 10 2600 48 2035 92 681 91 472
18326 -0.068476137503059947 0.13880524730592714 0.45390426964130931 168 114 24 0.17712557679779459 10 2621 132 2130 48 2034 9 2330 92 1984 47 1460 91 471 131 1826
18324 -0.50713072894414746 0.099715443946241392 0.52719976986313033 84 92 17 0.74135252036498911 10 2581 48 2004 9 2312 47 1463 92 3347 91 2560 132 2712 131 2815
18323 2.9419067682156221 -0.41017608222234858 -6.1671913663401643 96 92 55 0.15131383378854302 10 1907 48 1975 9 1585 47 264
18322 1.5123906440614352 -0.19259362955515152 -8.5916715291127552 31 35 12 0.34934341693681753 132 2584 48 1954 47 2154
18321 1.6048018219413311 -0.14881689231688416 -8.6121624370276013 27 30 10 0.32157994873290052 132 1952 48 1953 91 1530 131 2651
18320 31.877123401884827 -7.7896602344915937 -4.917261734938057 52 46 30 0.15647219181559449 46 1750 48 1876 10 2541 9 2224
18319 33.160260879854604 -9.1373256033690584 -5.6962044682127795 111 104 78 0.12703665022012395 10 1771 46 625 48 1848 9 1394
18318 2.5939957822732231 -1.4429608366929945 -8.8038700452351826 138 132 88 0.13417873406053063 10 2537 48 1840 9 2249 92 1699 47 1232
18317 2.5939957822732231 -1.4429608366929945 -8.8038700452351826 138 132 88 0.13417873406053063 10 2538 48 1839 9 2248 92 1700 47 1231
18316 2.9373610594680084 -2.0645739587606897 -9.5024574792817997 249 249 241 0.053370932266323633 10 2508 48 1810 9 2215
18315 2.9517175396832704 -2.2308758496954737 -9.0338578504390519 255 254 249 0.25194124757113889 132 2412 48 1809 9 2184 92 2556
18314 6.517156763723265 -3.2835205292645124 -8.3815583682741028 255 255 255 0.23136565332822934 8 2407 46 2386 48 1798
18313 3.0563230595787814 -2.5689997125711663 -8.9718556270206573 252 253 250 0.27928559695003147 10 2455 48 1758 9 1345
18312 3.9631740430080828 -2.6246182532665721 -9.0566290797871627 140 135 97 0.093152125966688343 10 1731 90 1711 48 1757 9 1382 92 1630
18311 2.8837484748389768 -3.1108540191735878 -8.7713574853743648 82 84 57 0.18904893502766931 132 2362 48 1666 92 2483
18310 4.4773509141821712 -3.7051857214665445 -8.0611113428913566 119 114 85 0.27609089215348825 10 2414 90 1622 48 1662 130 1426 50 1938 94 1732 134 1637
18309 4.4080126232858285 -4.1565403235326306 -3.2650988892343209 52 51 32 0.19830684377186017 10 1443 48 1555 134 2294
18308 -1.7039963979390409 0.66348234368855374 0.89851665134742009 83 76 69 0.067759037931572494 10 2186 48 1381 9 2584
18307 -1.6761274971992111 0.65112456406725849 1.0250631914747745 14 12 4 0.041859867954968467 10 2184 48 1380 9 2582
18306 -1.6258200822548439 0.6256553868298883 1.0304121154498904 6 6 1 0.09419357665144075 10 2150 48 1378 9 1865
18305 -1.661375668369774 0.61045957114382532 0.88923796565050139 102 87 83 0.058480187742294652 10 2115 48 1321 9 2554
18304 -1.6441349750166077 0.60428428857415561 0.96487205856797553 11 12 5 0.21759043872622694 10 2113 48 1319 9 1866
18303 0.49951764196319626 0.10551130898867672 0.63695170008728352 12 10 0 0.4499211690826308 10 1928 48 1035 47 394
18301 2.7264035153122275 0.42228348884935202 -8.4934169772597699 27 30 7 0.089372877418535612 132 1048 48 1005 92 608 91 325
18300 0.088541122701112779 0.083147332552843928 0.40128712602554722 122 62 24 0.25080518882479091 10 1897 48 994 9 1575 92 679 47 398
18299 0.09150978833858911 0.082598985415772444 0.39863371502914963 122 62 24 0.2718853341848288 10 1898 48 993 9 1574 47 399
18296 0.66529466039681007 -0.053007297343774781 0.93166177921060078 195 185 168 0.24580999784578578 10 836 48 985 9 1520 92 1955
18295 0.67478695049256754 -0.054909162603820602 0.92693649158570812 195 185 168 0.22030979158926306 10 835 48 984 9 1519 50 1004 12 863 11 396 49 419 51 345 47 1432
18294 2.483936107285142 0.050551074999073221 -8.1497892294670127 28 30 8 0.23187015214722217 132 986 48 959 9 1627 47 324 131 106
18293 0.75092054789618423 -0.11855638357282054 0.80341892838112261 62 45 27 0.12447517059970237 10 1886 48 933 9 1521 47 355 92 634
18292 3.2392296931516231 -0.31700372022566381 -6.0617289213390286 78 74 44 0.17248228469050489 10 899 48 898 9 513
18291 1.3674870832174062 -0.21342595255534058 -8.4744201252169979 20 23 3 0.25720308508346224 132 895 48 867 50 1023 92 493 47 279 91 215 93 190
18290 9.7294479296281136 -2.462746424576181 -15.911395895510976 84 85 28 0.1626096552777134 10 1867 132 756 48 807 9 422 92 365 91 29
18289 1.4426581788574249 -1.0247700790745944 -8.3026467168381757 112 112 83 0.23101901254172713 132 766 48 757 9 385 134 808 49 232 92 373 47 130 91 41
18288 1.4376548981643207 -1.0232824281546591 -8.2892532101525624 112 112 83 0.21481936971215729 132 765 48 756 9 386 50 865 134 807 49 231 51 157 92 372 47 131 91 40
18287 2.5796788331387002 -1.2802738635143556 -8.848657294144159 126 128 91 0.23166353795984407 10 730 48 753 92 311 47 126
18286 2.4728945009998964 -1.502079069635494 -8.8413494998312014 253 249 233 0.096021985892358719 10 727 48 692 9 341
18285 2.4134876938102239 -1.5381121418797199 -8.8422627874518103 94 89 57 0.2094558069692567 132 714 48 689 47 1233 10 1800 9 1455
18284 2.4889363289628958 -1.3653781442038837 -8.7555305861764605 91 84 57 0.059508302196919417 10 728 48 687 9 383
18283 31.482241335109237 -9.5923815450705696 -5.233904335814211 96 93 61 0.39253171503492551 10 619 132 1716 48 641 90 271
18282 31.637480535059431 -10.132524654496846 -5.0538049373677074 101 96 69 0.2803730174808271 10 614 90 191 132 478 48 638
18281 2.7953379540691281 -1.9636135621881832 -10.106453971682905 97 93 41 0.25179819611195836 132 677 48 630 47 30
18280 2.8153061222934297 -2.0205441001128213 -10.033649233876242 252 253 237 0.13532491952774361 10 1766 48 629 9 1430
18279 4.2984412237554706 -2.6547062805504034 -9.0518944106003278 253 253 243 0.2614200825514747 10 1730 48 623 9 1380
18278 5.0245215922606219 -2.6551513048094577 -10.027459472718299 209 206 182 0.11322644760159495 46 1669 45 1413 9 287
18277 2.7717227917787697 -2.3492452623599265 -9.7632426260926337 206 205 187 0.18184752298502463 132 612 48 561 92 211
18276 2.7717227917787697 -2.3492452623599265 -9.7632426260926337 206 205 187 0.18184752298502463 132 611 48 560 92 210
18275 2.8099512669580915 -2.5460202617106091 -9.8484186208083742 254 255 249 0.10020509937248545 10 1698 48 558 9 1387 92 1603 132 1711
18274 2.7701010325179261 -2.5823050225146233 -9.3676110494992511 74 66 43 0.15834188854892103 10 1696 48 556 9 1348
18273 3.8110800019389401 -2.6131114940754134 -9.052854835582 141 140 110 0.15084541345455044 132 607 48 553 9 238 134 587 92 137
18272 4.0207276245727259 -2.6233634419160534 -8.9471795245733912 250 251 245 0.096761342319816993 132 605 48 551 9 1381
18271 3.3135487731958992 -2.902093793430724 -8.9746887504726374 255 254 245 0.10314641274627492 10 1694 90 1671 48 480 9 1343
18270 5.2723504401060204 -3.5752619511172354 -8.1264436824198683 104 98 73 0.27280806505504396 46 1555 48 473 9 1307 10 468
18269 4.2336015790663382 -2.5606944667812455 -1.7883369783753129 183 182 135 0.21044021781904906 10 451 48 459 9 1246
18268 4.7748943087708788 -2.850587452534993 -1.8495023930649099 80 75 43 0.37717782302839653 90 151 48 457 12 1661 50 405 134 1623
18267 3.9533451105435935 -4.3205251474739139 -9.9945737613537471 252 253 242 0.12940832578848679 10 1564 132 342 48 355
18266 3.8334492470623371 -3.7843267592209924 -7.667104049980872 111 104 80 0.14786695609163208 10 1560 132 337 48 350 12 454
18265 3.5959407885717782 -4.3935354614871009 -9.9152545770102236 88 82 51 0.085563450033162791 10 356 132 285 48 298
18264 2.189290641132545 -4.7264133759108882 -7.9793436746529052 71 74 45 0.10037246865910861 10 140 132 117 48 153
18263 5.1673274578587884 -6.0573019898809983 -7.5609702888431718 250 254 248 0.24601336398754489 132 1391 48 143 12 182 134 72
18262 3.5604847832320305 -5.8534695184467118 -7.3945310270959963 255 255 248 0.13557021837170366 46 55 48 95
18261 5.5375490704731751 -7.9108220291394096 -7.5223582675542593 150 149 121 0.25627578983621163 10 1358 46 1324 48 22
18259 2.2654947952835283 -5.1440056910201619 -8.7618768233731057 70 73 47 0.12938357213099527 132 3867 134 3890
18258 3.178953094592488 -4.4150219423692354 -9.0826172347335241 132 132 109 1.1860499396463799 132 3857 10 4016 48 4026 50 4269
18257 2.7281599149442188 -2.9299850609816174 -8.3695086903343814 103 102 67 0.29550799878694084 132 3822 10 4008 48 4028
18254 8.8925781348740554 -4.6753299295543664 -3.121321400105491 128 125 74 1.1555008215513278 8 3855 10 4005
18253 8.3413434615033157 -4.8443911333683047 -1.6988739038144745 199 194 159 1.0858027082461836 132 3814 10 3981 48 4012
18252 9.0017097028132209 -5.5711488342597892 -2.5283993249924928 238 238 235 1.0229071792011524 10 3979 48 4011 132 3813
18251 2.6666653084651379 -1.1449226516970936 -9.0136782022419837 254 255 253 0.57407822655308616 132 3787 10 3944 48 3939 9 3723 47 3435
18250 4.8665871438268731 -6.3872888059979429 -9.5395785216175408 253 255 252 1.4101623342460918 8 3804 10 3927 48 3909 132 3702 50 3842
18249 3.6033390084782466 -5.0598941590055242 -9.2649211625318753 109 109 80 0.76734619901309442 132 3774 10 3868 48 3912 14 3486 12 4096
18248 4.7281780519608878 -5.8249256126213078 -8.4771912889611691 148 143 113 1.9978796734231692 130 3422 10 3863 48 3826 12 3815
18247 3.0979552331399751 -2.5315559138229604 -9.2898497514006326 254 255 253 0.68670667140152786 132 3734 10 3793 48 3853 9 3558 90 4289 92 3998
18246 3.4729037606861333 -2.5396744711757848 -7.1901719022794923 252 254 251 0.31836170021781846 8 3762 10 3788 9 3549 46 3490
18245 3.5393565718716822 -3.8010107000917097 -9.720221236977487 87 89 52 0.25822940849579668 132 3613 10 3782 48 3841
18244 2.9797267919261752 -4.9940860534784575 -9.8466684314938462 64 65 43 1.2823961459029418 132 3431 10 3768 50 3594
18243 1.9874926096762811 -4.9368347089122206 -8.1561150398581557 68 68 44 0.21567578732561254 132 3417 10 3760 12 3526
18242 3.2420360944182689 -3.2781933613108776 -9.0835179072893411 77 75 51 0.79672080342473706 90 4031 132 3622 10 3623 48 3694 9 3387 50 3885 12 3854 134 3650 52 3191 94 4366
18241 33.110877955174573 -9.4745394585461629 -4.4430043437422464 250 251 249 0.17997545616630556 8 2953 46 2980 10 3408 7 3195 48 3502
18240 33.215037785391061 -9.5558229167450559 -3.9028596002349372 253 254 251 0.093714285962917726 8 2952 46 2979 10 3407 7 3194
18239 4.6607162330683432 -2.5670671005305823 -9.1732636938170469 62 56 37 1.3160430031882064 8 3553 90 3330 10 3404 9 3166
18238 9.1748181428211897 -3.8303135303841338 -3.3948076575364059 249 249 246 0.89611519308571319 46 2944 10 3377 45 3369 48 3481 90 3297 9 3132
18237 2.8014317079337125 -2.4707224346156629 -9.1955364839173743 100 93 66 0.22445750110796386 132 3269 10 3373 48 3473 9 3154
18236 8.5549034338325729 -5.6034213976378844 -1.7156007508835025 254 255 247 0.4631531948312404 132 3433 10 3314
18234 33.916436683547232 -10.156262933101345 -3.5033275741864158 94 91 72 0.14626357674897963 8 2950 46 2421 90 3314 130 2270 10 3035 7 2798
18233 14.343838491550043 -1.292293895314232 -0.75875109831932908 59 58 31 0.28650249466978372 46 1926 10 2656 45 554 9 2339
18232 2.4195459967726478 -0.038014300527251493 -8.1014753161618351 58 62 39 0.25261123870454982 90 2830 10 2635 89 2466 48 1978 9 1625 92 1865 47 1372 91 1560
18231 10.569626337123854 -3.2363665464588647 -17.506975601981104 81 83 40 0.22819160713275499 90 2711 10 2560 45 2367 130 2758 48 2606 9 2265 47 2052
18230 5.0461758585300514 -2.5561433956593302 -8.4103616626230355 240 241 230 0.22584055221105878 8 2945 10 2504 7 2787 9 2212
18229 2.8598870191646646 -2.4543441135471591 -9.6761551290906507 60 61 43 0.19551634593093412 132 1753 10 2480 48 1759 9 2185 92 1631
18228 3.5702821616060869 -2.6302200959379261 -9.115234815609746 186 181 159 0.26743029769896415 90 2632 10 2478 9 2182
18227 3.5702821616060869 -2.6302200959379261 -9.115234815609746 186 181 159 0.26743029769896415 90 2633 10 2477 9 2181
18226 31.772189093895907 -11.343784784870063 -5.7500171418536921 70 69 48 0.43283960314482922 130 2219 10 2460 48 3102
18225 2.8613850653291739 -2.6289175082071674 -9.8519265162363361 66 64 44 0.37609683008302003 132 2386 10 2457 9 2159 92 1601
18224 3.3325952255645177 -2.656185466269108 -9.0515018703336274 255 255 255 0.098849661870343677 132 2385 10 2454 48 2523 9 2158 50 2803 92 2532
18222 3.4102886802115897 -3.8199519407199953 -7.4817699093547914 128 121 93 0.26220840176268195 46 1445 10 2387 12 1711
18221 2.8804096355087414 -4.9275060236201398 -9.108976563634883 81 79 41 0.17434713239676361 132 2248 10 2328 48 1524
18220 35.781341139975432 -5.910334623859252 -3.5264327250390619 42 41 23 0.11685257447296471 46 821 90 505 130 779 10 1917 8 841
18219 0.68770064402298392 -0.04410391232743853 0.94931663164445346 42 38 18 0.49344104414168638 90 812 10 1885 9 1518 12 864 11 395 47 357
18218 16.503742452193034 -3.365045262202393 -3.0513195585290975 107 109 70 0.13067877734304248 130 1711 10 1842 9 1491 47 2056
18217 32.8231957761842 -8.5410556257120369 -6.2208895980948444 253 254 243 0.20974574773727389 46 627 132 625 10 1809 48 1879 9 1433
18216 32.698021229022046 -8.0780877787785119 -4.2926853140062349 50 48 26 0.21669935678505342 8 677 45 270 10 1806 7 328 90 1761
18214 4.6363865750120841 -2.4778828075430295 -9.6171567063498706 249 250 243 0.33489993725296335 90 316 10 1763 45 1414 9 1429
18213 4.9662810453803203 -2.5202850091553675 -8.8981438513171138 57 54 34 0.13218811985292919 8 1695 10 1762 7 2184 48 620 9 1426
18212 4.9958797473709149 -2.5397426708040647 -8.5333019466544702 250 251 243 0.1820302029217564 8 1692 10 1760 7 1449 48 618 9 1423 12 712 11 133
18211 6.7050782269620122 -2.4100460038614608 -2.2572788823800392 35 32 19 0.21250834340572045 46 565 10 1746 9 262
18210 2.8099512669580906 -2.5460202617106087 -9.8484186208083724 254 255 253 0.10020509937247875 132 1710 10 1697 48 557 9 1386 92 1602
18208 8.5279616722653877 -5.6805831903202346 -2.1430654483956664 251 252 246 0.33276792326609056 46 229 130 1354 10 1470
18207 5.0369726509870185 -6.9853094853065203 -8.1721646322957149 138 134 108 0.90190323152416307 46 1337 10 1380 48 1456 132 1338 50 1681 12 1539 52 93
18206 5.6206449438030939 -8.1148703899444374 -8.3277710122514197 253 254 249 0.15789966350995538 46 1326 10 1359 48 1441 50 1599 12 1469
18205 14.959434214128635 -1.8089075297629609 -2.6366764595632639 35 36 18 0.2212230102653592 90 631 10 929 9 484
18204 2.2781672243620572 -0.0088341342926193805 -8.2657991387123548 70 75 53 0.15945335956592224 132 987 10 919 48 910 9 582 47 273 91 262 131 108
18203 2.5184926557207779 -0.17859648061270095 -5.8766069453627363 56 55 23 0.062062609459330842 8 1913 10 903 9 519
18202 -0.53450522127497746 0.14632316014179106 0.543670314980091 34 28 9 0.22636091021593255 45 617 10 849 9 502
18200 0.58464679575715384 -0.08652555423096267 0.6531073183664422 146 141 112 0.24529529639915515 132 1158 10 841 9 1523 47 363
18199 0.57983811332520663 0.002464867759778 0.71228410048182034 100 94 66 0.074991629989875117 90 815 10 840 9 491
18197 0.69704621786352206 -0.063234011769835272 0.94843610876009365 215 203 184 0.14209368366282182 45 606 10 833 48 982 47 1431
18196 29.458697966148211 -6.6313941915114976 -4.5806564207238285 122 122 73 0.19099214501469747 132 725 10 780 48 817 9 1462
18195 10.10531558745803 -3.512432459848204 -17.223474670712065 139 136 71 0.065719035123853103 45 254 10 768 9 380
18194 31.237762447106164 -7.6471791510208442 -3.6295088943025648 122 125 72 0.11320646188725625 8 676 45 269 46 696 90 385 10 737 7 326
18193 2.574848923245352 -1.2793646035341502 -8.8356705172952896 117 117 81 0.19639627442488314 132 761 10 729 48 752 9 1483 92 310 47 125
18191 2.9929032282551642 -2.260516020062604 -9.7809561126513884 69 71 44 0.21145694187204378 132 613 10 608 9 293 48 625 92 212
18190 2.8382338325906469 -2.4341124633757989 -9.8501967237738803 53 50 31 0.18739993386610995 132 610 10 607 48 559 9 243
18189 3.6405990754507171 -2.6379608405031236 -9.0190131216177143 153 147 127 0.062011911718256707 90 249 10 604 9 239
18188 3.6928047242144837 -2.5521391972099519 -8.3193630562682674 253 253 243 0.097689953867451537 45 64 10 603 9 236
18187 2.6272562645670532 -2.4321585751802437 -5.7827113743448137 148 141 114 0.19913330978231455 132 528 10 478 48 477 9 1312 92 87
18186 9.0602971821927998 -4.085248703048598 -0.041552323472929975 162 160 135 0.2947226073608934 45 3 46 431 10 419
18185 3.5247950551860074 -3.6190741681735683 -9.3378805423363058 101 97 60 0.16170471253303073 90 53 10 405 9 1266
18183 5.830564870291675 -7.0259122275019568 -8.289020766434664 254 254 242 0.12225644220309174 132 52 10 90 48 92
18182 5.6897029782396373 -8.0267194259463945 -8.042203305411789 147 145 123 0.23036253221921554 46 1325 10 26 48 23
18181 4.0272604096319196 -3.8490301467153993 -8.5949557067530353 108 102 79 0.57228467316932197 54 1943 56 1620 16 2371 14 2658 132 2342 130 2135 46 2873 48 1624 50 1896 12 2581 134 1641 94 1740
18180 4.0009691999848194 -3.7888592281488949 -8.0030646711003719 252 253 247 0.52316039665690073 88 3663 130 3021 46 3251 8 3519 132 2867 138 2514 136 2138 16 2362 56 2014 52 2034 14 2656 10 3351 48 3041 50 3255 12 3175 134 2404 94 3470
18179 3.5587390360571081 -5.7486697237686837 -7.3722365346037133 165 158 138 0.36656543130144847 130 1227 46 1351 8 1378 132 55 56 948 136 17 48 97
18178 4.2929779509366011 -3.7146778001456138 -7.8537055012651376 251 251 242 0.35309814455339883 54 1211 16 1840 52 1398 136 314 14 1416 132 1615 88 1550 130 1422 46 1518 8 2337 90 2558 10 2413 48 1661 50 1894 12 1755 94 1733 134 419
18177 8.837987862423331 -6.6930525620640156 -12.038392911717883 236 236 224 1.2708327162173119 130 3585 132 3856
18176 5.6297137147111398 -5.0160009553657972 -8.4382368915471275 0 0 0 0.86460336500757695 54 3285 130 3586
18175 12.086340641621229 -2.4593942064446876 -20.004275686511903 103 103 49 1.1980827342854439 90 4411 132 3848 92 4183
18174 4.9189051452609878 -2.515118015388965 -8.5090802009040161 92 86 52 0.81904679808924574 90 4423 132 3842 48 4048 92 4197
18173 5.1692810360608581 -3.5467417218879369 -6.5857052977985218 67 65 37 0.090440697307630921 130 3568 132 3819
18172 16.658500453590545 -2.9971001386976939 -2.8256525493818714 31 31 19 0.87426454520680008 90 4338 132 3790 45 3894 89 3890
18170 17.447056465574938 -2.7162679839378359 -2.4626367001364891 92 87 49 0.63486253733106235 90 4088 132 3653 89 3632
18169 17.274081233258034 -2.1588076311175981 -3.0387833979180709 41 38 24 0.61538220104154118 89 3642 90 3845 132 3521 131 4119
18168 17.073063729712548 -2.1559740290336138 -2.9791019250061588 41 38 24 0.90557055988576385 89 3641 90 3844 132 3520 47 3189 131 4118
18167 15.619465134470225 -2.2829479892079463 -2.6458924967105841 125 122 73 0.53973676178162389 89 3633 90 4089 132 3518
18166 9.5622059408942022 -2.2338893592422391 -17.431526063228105 128 125 62 0.36269465092006775 90 4069 132 3503 134 3339 92 3634 94 3985 47 2952
18165 4.0429541004818077 -2.5491224531704382 -9.1177413469114281 135 130 98 0.57033811574300763 90 4202 132 3487 48 3717
18164 4.0496800862647016 -2.5589217029615106 -9.1274893224759275 135 130 98 0.64111700521813408 90 4201 132 3486 48 3716 92 3844 94 4235 134 3307
18163 3.657165159233851 -3.2274069112326638 -9.5656644552243382 254 255 253 0.5994439874236992 90 4030 132 3460 92 3829 50 3884
18162 12.335066809936459 -1.1639065219000075 -2.3007331527074002 125 119 67 0.29671499090116038 89 3042 90 2838 132 3342 131 3871
18160 16.996071809182244 -3.6180916351696983 -3.0329348904925739 43 40 26 0.33658986361280935 90 2722 132 2969 45 2433 46 1794 89 2360 47 2030
18158 3.618584854441945 -3.7229421169366539 -9.529858757522609 158 157 117 0.30245869032567496 90 3730 132 2869 48 3063 50 3271 12 3195
18157 3.6239527512016281 -3.7253776631493025 -9.542527584639215 158 157 117 0.26320038951685526 90 3731 132 2868 10 2960 48 3062 9 2702 50 3270 12 3194
18156 3.6287235047458988 -5.7393339679666049 -7.6570085263839589 191 187 160 0.37615507138368592 52 1259 132 2772 50 2571
18155 4.7514420408231377 -5.9874192413863971 -7.2277551011336136 253 255 253 0.40781863350356851 130 2595 132 2771 48 2979 50 3171 134 2791
18154 9.1753847052405604 -7.3033375781828216 -3.0908760616413136 254 255 255 0.31314578280386318 8 2229 132 2761 10 2296 48 2360
18153 8.3330878496713492 0.40103822696694014 -0.60065599235161626 145 145 73 0.22830105607929194 89 491 132 2692 90 852 47 458 131 2771 91 1704 162 2616
18152 16.721972795544637 2.6489012996139856 -26.709049739900092 117 108 52 0.25695649252723679 89 2554 90 2930 132 2659 47 1508 131 1735
18151 16.898077641534332 2.6686251349401182 -26.966332693832371 117 108 52 0.28578289373553123 90 2931 132 2658 47 1509
18150 13.322843008470127 -1.4611429441208286 -1.8430604239801156 126 125 74 0.3757054515988118 89 1595 132 2588 131 2677
18149 2.5205715089977652 -0.13423856878765456 -8.046251480866168 106 109 65 0.15245357551754721 90 2829 132 2583 89 2465 92 1864 91 1559 131 2670
18147 16.733283696116963 -3.4460239288743915 -2.8658417695931568 133 131 92 0.24063950114066554 89 2359 132 2516 45 1603 46 1796 48 2647 47 2054
18146 9.5582555037829131 -2.3250693610293491 -15.928602074752373 179 179 112 0.2625603938295944 130 2777 132 2502 45 3020 90 3384 48 2632 134 2525 49 2536
18145 5.4939466552108556 -2.5307793621628254 -10.006962610075052 254 255 246 0.55981732099459147 8 3329 132 2443 46 2946
18144 -0.081896644053184559 0.13136174106750098 0.4334327200476254 93 57 7 0.47181222297812836 90 2072 132 2128 48 995 9 2329 92 713 47 1459 91 473 131 1827
18143 7.630173890311255 0.39740583557303383 -0.29512293762225633 179 173 95 0.19338113388032233 89 490 132 2117 131 2770
18142 7.9899438380693386 0.40383402023157255 -0.60060511830264507 136 139 60 0.20985319853016354 89 493 132 2100 91 1705 131 2772 162 2618
18141 3.3466628973704742 1.5406242883570573 -8.6608788801219827 125 123 48 0.26485292173628766 89 523 132 2096 91 456 131 2768
18140 12.093251298467862 0.2293423031982294 -1.2310023058996291 152 158 70 0.207307271840937 89 452 132 2082 131 1758 162 1741
18139 4.6675721966051631 0.37924089169859787 -8.4179693324948701 48 46 24 0.20162489791743185 90 2032 132 2019 89 2529
18138 13.704703464603071 -0.84095307138035524 -2.6398499085735647 17 18 7 0.30317803933837062 89 356 90 693 132 1992 48 1068 47 1377 162 1647 129 357
18137 12.729846905858 -1.3688201945884733 -1.9590420081089552 135 135 79 0.20960376033810929 89 1597 132 1958 131 2680 162 3141
18136 15.191519127439213 -1.7175305355321391 -2.6625648203243428 141 140 86 0.1509522152506495 89 1541 132 1957 90 1929 131 1609 162 1605
18135 2.468946192102198 -0.1026987584691267 -8.0857413611591511 37 40 13 0.28647537017413266 89 1577 132 1949 90 680 10 914 9 525 134 970 47 1370 131 103 93 241 133 91
18133 18.209505375216807 -3.0909309082519267 -2.2565667657659998 54 52 29 0.079625478798945062 89 1454 132 1897 130 782
18132 4.9040125943690258 -3.6222244976032187 -7.716780669457818 85 78 60 0.54712817470272612 90 1620 130 1465 132 1653 92 1508 94 1769
18131 32.631279394589001 -12.10829550043298 -5.2445434173878036 155 150 126 0.15815693460741062 130 397 132 1621 48 490 9 1274
18129 3.5327055846250084 -3.3026545978318707 -2.2504118820420969 175 175 113 0.27354959272504931 46 1461 132 1510 10 2341 8 2266
18128 3.7537732787995366 -5.0465274762377659 -9.2286830569992446 252 252 240 0.32928517414752501 130 1300 132 1481 48 245 50 354 134 1512 52 1341
18127 12.129385481237163 -0.26678987106014446 -2.1328160348226133 93 94 50 0.05089816702883556 89 405 90 808 132 1123
18126 12.251752421463525 -0.26845154733592846 -2.1701801385492008 93 94 50 0.15525203255236622 89 404 90 809 132 1122 162 287
18125 12.473897026177237 -0.32334300278006678 -2.0643305864906187 114 112 70 0.32091594369558524 90 765 132 1119 47 343 48 2126 131 214 162 286
18124 15.669229987088066 -0.12425923501261581 -2.0013718235472324 24 22 7 0.26039646317955151 89 451 90 807 132 1118 48 1185 47 1450 131 259 162 1721
18123 13.734926296329958 -0.82670781929319248 -2.9053649609423609 64 62 41 0.10628878412094536 89 357 132 999 91 340 131 1666
18122 13.08190374105274 -1.1932499035121014 -2.1945779440261814 54 49 24 0.29475544757518196 90 691 132 998 9 533 47 1337 162 114
18121 2.3733889811740543 -0.71691193503025041 -8.035714323889577 67 65 24 0.1527321560980579 89 147 132 825 47 185
18120 2.502065311278487 -0.69820061373334374 -8.0664316108618674 140 142 95 0.17577803149692686 89 1493 132 823 90 559 91 150 47 182
18119 17.755545639257619 -3.30836548056641 -2.0345480795448427 125 125 77 0.34941100330033348 89 74 90 510 132 776 9 393 10 1880
18118 11.043587212225784 -2.7371428935194584 -15.428034982625189 98 101 46 0.15927405704702069 46 747 132 753 8 823 7 364 91 27
18117 3.8009836567466788 -2.6071405028117161 -9.0326864198533396 153 148 120 0.18347782731331722 90 246 132 606 48 552 9 237 92 138
18116 2.6466432407945963 -2.4421020366397421 -5.8153876477135773 177 174 144 0.19687659511071753 130 1509 132 527 10 479 48 478 9 1311 92 86
18115 3.5066905030058266 -3.5538880089090696 -9.3752233615328517 253 253 243 0.24138314496475183 90 1587 132 415 10 1605 48 421 9 1267
18114 4.5708003991589043 -3.7241656321428493 -8.3654442644971656 241 242 228 0.13629863643001378 90 124 132 407 130 297 10 401 48 419 9 55 12 518 92 31
18113 8.3179604090615733 -5.6455299447770209 -1.8423227213017983 164 160 125 0.20397956525540209 46 227 132 199 10 1467
18112 7.8242348021542387 -5.6451005966838776 -2.2981180029518242 246 244 231 0.1476367431875571 130 203 132 146 48 220
18111 0.63848962837766954 0.22743443081681147 0.72196545694596437 24 20 8 0.71162135456271325 140 1665 18 1458 17 1571 140 1021 99 543
18110 1.0675920245077644 0.50504791483050826 2.0161480164400207 121 132 53 0.5597454967149329 18 3106 17 3540
18109 1.4060134251677765 0.48972796379172195 1.7812565520204298 32 30 11 0.51306957309389389 99 3743 17 3534
18108 0.96066236023004081 0.44566152252540703 1.9833893087099996 20 20 12 0.64674252271023536 18 3045 57 3574 17 3531
18107 -12.343305658448521 -3.1256661550335298 -10.131682288273833 245 245 235 0.15475219018613676 18 2659 57 3172 17 3315
